# 3D point list with one line of data per point:
#   POINT3D_ID, X, Y, Z, R, G, B, ERROR, TRACK[] as (IMAGE_ID, POINT2D_IDX)
# Number of points: 388, mean track length: 4.2147799057455133
1482 -0.75660370757423023 1.7470075969588943 2.5499117756713661 122 20 13 1.3749326156842996 49 1387 66 1464 10 743 16 362
11755 0.34656221348769595 1.5276878993098801 3.8102117489631731 58 61 70 0.28664605740034815 12 714 14 744 99 926 47 671 35 796
6569 0.56767415130749033 1.2715903189449203 2.3790281279714454 255 255 238 0.66587423575508586 43 432 24 376 29 467
6570 -0.72330928567986419 0.70369332700018983 2.4632267989689378 191 160 113 0.48949513545836404 86 199 24 383 29 378
11659 -0.61557475452159582 1.0018563920518324 2.6354084079680962 177 159 142 0.37870748450371705 9 228 99 215 35 176
1386 -0.6212457272077786 1.7914361486222969 2.4683671124392474 92 10 5 0.068186028214555314 49 1382 66 968
1485 0.2927646612916609 2.1532800528740457 2.8121842010263123 16 12 9 2.8525003113364775 49 1322 66 1479
11758 -0.91590649161346382 0.98952655358246278 2.3226536719938666 179 149 103 1.7616492299450282 12 396 35 933
6572 -1.3192191040930694 1.0710518252860664 2.4449023007578319 0 0 0 0.96121793944103828 43 318 49 120
6574 -0.84408425712550994 0.50969827991182814 2.3783381464366018 255 207 129 0.85725070621985022 43 878 24 399 29 394 8 537
11662 -0.54828666343880639 1.8430702998186115 2.1220161144700236 140 131 107 1.0251734143263809 67 966 99 271
1389 -0.60807376745031838 1.740490241163833 2.4174924209842543 110 17 9 0.78519315875805318 49 720 66 981 89 968 57 1327 42 1417 82 1103 40 1221 71 909 10 597 25 759
6575 -0.11694205677901326 0.91675528500790271 2.9122907867338141 204 193 195 0.20683169244983513 86 572 24 400 29 347
1489 0.59663051441139481 1.584849038363046 2.5321575721027818 128 115 108 0.45062555805576504 49 799 66 1498 82 1255
11762 0.43640085107956134 1.1008633567307993 2.2997541409711761 231 193 143 1.5268758131259907 12 1206 99 1005 35 666 23 808
6576 -0.19781041279119194 0.96126987769252981 2.6343571571883913 174 169 171 1.3620032822061443 43 266 24 411 8 181
6577 0.48983611395557297 2.1178769937761257 2.8727112935742025 0 0 0 1.2006458758817851 43 219 24 418 29 295 86 234
1491 0.63008917562181233 1.4399633526473514 2.3620826080288899 0 0 0 1.5561508029138527 83 1243 49 430 66 298 83 308 38 419 89 369
6578 0.58539827955724311 1.8575479338510219 2.494627196962782 144 126 112 0.20603179505249516 86 323 24 422 29 424
1492 0.70694316106533228 1.5499144811788592 2.2526118482005759 1 1 1 1.4624123253726766 57 270 49 304 66 633 83 590 74 1076 79 928 38 892 57 815 89 646 42 270 82 933 40 654 71 382 71 1134 16 837 36 627 16 564 15 1314
11765 0.10286735200622232 1.6908340930596297 2.3127394329358788 180 165 152 0.73080859497907724 12 1021 99 1055 35 690
6579 0.63881255467199949 1.8070105773154685 2.494189558679119 199 167 129 0.92146258644401968 43 770 86 542 24 424 8 629
1493 -0.50839619858124818 2.7164087550785965 2.5487848625699487 29 23 14 1.6435950147093719 57 515 49 532 66 678 74 1038 79 1062 38 711 89 935 42 911 82 723 40 712 71 709 10 496 13 460 80 901 4 1273 87 541 54 1141 48 428
11766 0.068584172229175427 1.4264322269987038 2.6614460037922161 156 137 133 1.6093556011963437 12 1080 35 1194
6580 -0.56468477556352414 2.6745663716493868 2.676534126687057 217 196 176 1.1376523501883518 86 425 24 428 29 430 8 310
6581 0.5602647643594828 1.359073260141612 2.3597756867537005 226 188 137 2.8369075226166807 86 459 24 430 29 461 8 258
1495 -1.3304282151750766 1.6185605693824405 3.0856642923791879 0 0 0 0.30290955509432743 71 37 25 42
11768 -0.42940602949898998 1.0557809073458824 2.7046156792291978 203 183 167 0.74353267702578374 9 607 12 876 99 1117 23 584
6582 0.67577612216088079 1.6454175145511112 2.2185188665073734 36 28 21 0.76566943718646019 24 435 29 607 70 788
6583 -0.89072726021361559 1.2216838932879135 2.5670455749218322 200 177 158 1.8417438515346833 86 355 24 437 29 409 98 297
6587 -0.1497175173669098 1.0527642936512736 2.7147110320995163 113 100 89 0.68412545454486806 43 322 24 448 29 256 8 201 17 481
1501 1.0971066338567328 1.2203758012911587 2.4382988494478059 0 0 0 0.67230063822241171 49 407 66 1152
11774 0.29548500051059234 2.2046654460374406 3.1403048156999436 30 27 26 0.084982661111375299 12 1403 99 1181 23 1262
6588 -0.33032678831050044 2.1642527577510533 2.3122594903192759 0 0 0 0.93963276914591487 24 456 29 901 70 698
6589 0.67605410169308855 1.8399674336392358 2.499615872156661 126 112 89 0.54279733878193381 43 393 24 459 29 423 8 627
6591 0.044889940926136816 1.7768406300560851 2.3858070099614448 14 11 11 1.7787915454702758 86 255 24 469 29 1216
6592 -0.53394945863896071 2.0700610036695122 3.0769810868314176 140 114 77 0.19640517250239609 43 299 24 471 29 463
1507 0.62130787742943749 1.065672746372279 2.3663786920881651 251 238 187 1.3653495437706269 57 74 89 44
11780 0.41173379107481151 1.387249513331426 2.6561168560593122 254 252 209 1.8250201702880708 12 753 94 1154 99 1204
6594 -0.36723092679502217 2.3919050871650516 2.8035890618374939 145 118 81 1.9162015637102037 86 435 24 476 29 477 8 469 70 493 26 823 73 392 78 1262
1508 -0.81817903794120717 1.4003016997067916 2.7041373665387005 187 38 33 2.0167816329130566 89 61 42 102 82 178 40 110 10 172
11781 0.10519568300149615 1.7108474155373539 2.9158954938353765 251 255 255 0.49256632486802415 12 1220 99 1233 23 1087
6595 -0.2926094568239368 2.1850193195433318 3.1641873690493596 255 255 255 0.47836403422210255 43 449 24 478 29 481 8 449
1509 0.57776824321822007 1.2927506724220423 2.3788823667418693 231 194 145 1.8898910680328054 89 68 52 127 63 129 66 73 100 105
11782 -0.071750025727153069 1.3993370507619338 2.9271606418899192 90 21 19 0.13611980942401977 12 844 72 1349 99 1234
6596 0.25582125167075864 1.764298454505848 2.3415891167309861 22 17 14 0.28890688363534744 43 641 86 441 24 481 70 470
1510 -0.6491623293115224 2.10516810067644 3.1258199989343214 0 0 0 1.8660619126724336 66 78 89 75 16 125 36 347 13 299 80 286 4 275 97 295
11783 -1.1459241916795038 1.9501377313275015 3.4513137072725941 30 27 28 0.79303982696546971 12 1241 99 1236 35 883
6597 0.39660118355119639 1.6398486287716594 2.4026692869754602 172 156 148 0.62537240240146574 86 1269 24 482 29 1290 70 874 98 1296 65 1178 51 1308
11686 -0.11003625843804687 0.87068866374388521 2.9205111580231868 164 39 26 1.1723599632736947 12 221 99 464 35 211 23 178
1413 0.060450615724783087 1.3948052967843187 2.6077976008097239 121 71 61 1.0388360664174885 49 1261 66 1093 40 1090
1512 -0.54509593684250623 1.927806735582055 3.2190517756056147 0 0 0 1.1777229874100261 66 91 40 133 71 130
11785 -0.98190239318238193 1.76443730729188 3.3098758931178711 254 254 254 0.099805552726716429 12 1261 99 1250 23 1161
6599 -0.64792004773645051 0.7467841895784042 2.4216677459967997 255 211 133 0.82113731725180605 24 490 29 384 70 558
1513 0.64856404108826005 1.592398496734909 2.4922813646004962 0 0 0 0.80759009663573855 66 102 89 98 82 151 71 111 10 113
11786 0.43495381493837815 1.5156267751322405 2.6995337683307148 212 184 149 1.2342328584433893 12 1314 99 1253
6600 -0.7596469416514906 1.6810591149038145 2.4180713350789094 204 182 168 2.2775007252810484 86 539 24 495
1514 -1.1031375172651976 1.049853473742717 2.673232937614423 0 0 0 0.52764213581722608 66 131 42 134
11787 -1.3690821553272219 1.4145595535592239 3.9746335201468144 26 23 24 1.1252328002556193 31 1261 99 1256 35 1052 23 1339 68 1101
6601 0.29768986571355244 1.713265591187296 2.3449998225972326 111 10 6 1.0306385337723489 43 451 24 502 29 503 8 624 70 694 86 973 26 246 73 734 96 1094
1515 -0.81168123512942103 1.6640832912590575 2.4927298468010064 160 25 23 2.1055299321923928 66 97 89 107 42 87 25 68 16 84 36 81 13 70 80 76 4 73 87 155 20 175 53 186 60 266 37 114
11788 -0.0052392601696640249 0.9553325137931572 3.3302060559996298 203 47 27 0.38769768947735028 62 1245 99 1263 35 1144 23 1379 3 1086 81 706
6602 -0.24624221450372652 0.92136456151223756 2.87497143989189 255 255 255 2.1667854939582525 43 479 86 577 24 508 29 758 43 268 8 1068 70 591 70 1016 26 782 29 287 56 497 92 480 69 765 78 953
11691 -0.49920400574277674 2.0692622178307878 2.1040510420026308 143 136 112 2.1205565233752193 67 490 99 480
1517 -0.59857774599426905 1.8660555670666401 2.6697878053349617 22 20 17 1.9654836279166161 66 164 89 112 71 66
11790 -1.0031516848292212 1.4523797944718748 3.7557813328767717 92 79 49 2.0048796648638154 72 1445 99 1283 47 1459 23 964
6604 -0.68942930510198264 0.99236491135234783 2.7212424684348471 143 143 146 1.5677630021738918 43 732 24 523 29 579 8 292 73 194 96 200
6605 -0.64192115382825554 0.99698338432270928 2.6404531692823983 87 55 36 1.1432225795104407 86 1056 24 524 29 1050 8 293
1519 -0.59727516233705968 0.68310067167626776 2.4786953535454868 188 156 107 0.66772863751758071 66 76 89 125 82 159
11792 0.19332835772885673 1.3754652507822596 2.6618422289119872 250 239 255 0.20580705708047153 99 1290 3 435
6606 -0.15367890898449665 1.0301808527534548 3.1220141010775531 255 255 148 0.76285118031652899 86 823 24 528 29 783 43 743 8 709 48 834 73 312
11694 -0.018046057079429415 1.5266737157753072 2.6463997828992794 99 79 62 1.8973578576057721 12 859 99 509 23 733 81 766
1421 0.6760192228907651 1.7222593318112493 2.5799168908098453 72 62 54 0.50798412898975731 57 1193 66 1148 42 1134
6607 -0.20844626558258164 1.0445666297720515 3.1305304386382846 255 255 132 0.7156934559984478 43 339 86 363 24 530 29 541
6608 -0.20909605228418812 1.1888488012636458 2.5517990938226451 118 20 14 0.18799717217053943 86 514 24 532 29 787
6610 -0.45938699198021499 1.2576668404736215 2.5262994921500779 241 226 188 0.4951355675455531 43 333 24 540 29 511 70 427 26 477
1526 -0.53252383194895325 2.2723202627725119 2.477297512603343 200 190 196 0.72655035955749003 57 118 89 160 82 133 40 130 71 249
6613 -0.15267318913416267 0.91517216205223417 2.8914471291089914 255 255 150 0.55146594616329891 43 487 86 575 24 545 29 513 8 497
1530 0.10078848384246863 1.7987612095665588 3.2998856431993886 68 39 24 1.040569620396232 66 184 89 185 42 175 10 294
11803 0.93195318055675247 2.2032971078368422 3.1483678268328292 49 46 48 1.8969488530304686 94 954 99 1347
6617 -0.84238495497090093 0.4560377844788574 2.3857138136557197 244 197 139 1.7519328075852367 48 208 86 1048 24 565 84 212 29 551
1532 -0.92768652996470313 1.1638723206117398 2.5705039675841093 44 39 32 1.3780624649437236 57 370 66 261 89 199 82 154 40 147 71 149 10 228
11805 -0.0029849240910176968 1.6733737746783479 2.3736938105551344 161 146 136 0.48142018309197487 14 1133 99 1372
6619 0.34562983762442956 1.9546470618377931 2.5724971855214274 133 112 87 0.88310448803064145 86 320 73 727 29 1144 96 1077
1534 0.21937307494200337 1.7571171075923862 2.34349875006802 44 38 30 1.2272095915885755 66 144 89 203 82 265 40 218 71 319
11807 0.077815309259531645 1.6166444151660209 2.3293649422752076 105 66 62 0.25643443948035044 67 999 99 1378
6621 -1.2643340537297507 1.1515608315887103 2.5596662248741042 255 229 170 0.85164916399293689 24 582 8 583 70 722 73 344 96 409
1536 -0.80757023335398814 0.61481044266659801 2.4177174843078078 226 190 134 1.9248266575819886 89 216 40 620 25 449 16 856 36 174 13 214
11809 -0.80273000431053854 0.66631962438461634 2.4264521249868429 102 84 58 1.272178693400621 12 137 72 145 62 103 67 119 99 129 35 118 23 155
6623 -0.48273977547617214 2.4043568826708088 2.6529170922199992 0 0 0 1.4323859429415058 86 315 24 594 29 325 98 634
1538 -1.285939852041535 1.9156649768454592 3.2632989308349609 0 0 0 0.78026437004933413 57 170 89 246 40 267 71 252
11811 -0.25481258229738418 1.4745490950644273 3.8309251334625141 61 58 57 0.27181332557676019 94 697 31 683 9 677 12 729 99 629 14 1065 77 920 72 620 23 652
6625 -0.55610965637979137 2.1867211685446808 2.9906117439807791 208 189 178 0.84458028250086914 86 477 24 606 29 688 70 682 17 431
1539 -0.57440710653645766 2.285883024474042 2.9390848159103697 112 96 77 0.47328202626953891 57 946 89 249 42 281
11812 -1.1227136378475875 1.3086518864812684 3.6821938199645379 0 0 0 1.7662312356362426 14 368 77 591 72 192 99 233 99 594 88 349 30 281 77 204 94 237 67 636 23 1303
6626 0.049650183562733451 1.7438813016119228 2.3713877876109519 255 255 255 0.12401226421797096 43 823 24 611 29 691
1540 -1.258624441129895 1.9868392097648158 3.382755556551484 67 61 55 0.76647563177228595 66 306 89 250 82 232 40 260 71 332 10 346
11813 0.54595050673977019 1.4467277898312367 2.1466475700024716 190 159 113 0.90855667006017105 9 433 99 384 88 1112 77 1186
6627 0.70756064201258773 2.5025330618189745 2.7140717198780058 0 0 0 1.287625792473134 86 616 24 614 29 629 84 1377
1542 -0.9851140391675236 1.4974751880504966 3.5366039457084124 136 125 94 0.22516743714832332 66 333 89 273
11815 -0.94810987057667429 0.65113299267335201 2.7167300510868864 0 0 0 2.0734055863750753 62 214 94 221 99 288
6629 0.74858554910373021 1.9470073985806831 2.3548622832584698 0 0 0 0.80648896959406124 48 1313 24 618 29 426
1543 -0.82000000983799759 1.3736640017097881 3.7484588469812743 0 0 0 1.6275565512548742 66 245 89 278 10 557
6630 0.38862931737526069 2.1575876891943797 3.0047449124054229 139 124 118 1.1423039726569901 86 422 24 621 29 420
1544 -0.015275185754643665 1.6773981194000374 2.4387691107457514 106 18 10 0.7379758916858048 66 569 89 282 42 733 36 716
6631 0.67096612806860234 1.8176282436200606 2.5230572846340906 0 0 0 0.95720018068832013 86 638 24 624 29 815 8 891 70 648 26 412
1545 0.58590913079818685 1.8503388834411887 2.554507063839127 0 0 0 1.4095484509081306 66 732 89 283 42 242 40 235 36 369 16 458 80 173
11818 0.89765576408818371 2.1116962342966397 3.0010161727605031 103 91 82 0.26722376066239872 9 475 99 418
6632 0.67254404577219273 1.7307564906743658 2.5601311047952957 71 54 15 0.34826901969497015 43 774 24 625 29 649 70 428
1546 -0.85136267921118869 1.5643041438356851 2.5730734671581743 156 30 25 1.5558170909715239 89 289 42 711 82 408 40 434 25 377 16 413 36 662 13 724 4 676
11819 0.92464158164014221 1.2643220370607755 2.4281870778465242 255 235 156 1.0603632709012869 72 1259 99 665
6633 0.69821847569579265 1.6644945092336616 2.5970278294002864 255 255 255 0.92451882225322735 86 600 24 628 29 812 98 478 90 1130 65 407 93 615 15 443 51 601
1547 -0.90895815947379865 1.1620959559917832 2.5422108514595831 187 168 156 1.5880940092078477 49 558 66 221 89 309 42 274 82 224 40 253 71 236 71 659
6634 0.64352402533182518 1.6528867808633243 2.3193423094242509 182 155 118 0.2608302236571845 86 942 24 631 29 609
1549 -1.332221604256099 1.7688349795734357 3.164602741576592 0 0 0 1.7089152363989699 66 446 89 325 40 377
11822 -0.63177289904077283 1.1830241597433959 2.5431824865884325 254 247 213 0.24254736663260112 12 1156 99 1053 35 696
6636 -0.33739076705105964 1.5830066249176675 2.6637182513213089 120 9 5 1.0826007608336408 43 1055 24 634 29 671 8 658 73 575 96 634
6638 -0.36093256708226784 1.7324647815053966 2.6557329178937867 48 40 33 1.4049972649507905 43 246 24 645 29 662 8 274
1552 -1.0856723679954492 0.81546369590340262 2.3668170276697014 0 0 0 1.4199580657498423 83 416 89 371
6639 -0.36305670822103125 1.4363886539607202 2.9509339071543752 36 21 14 1.3981621135119626 43 356 29 527 24 968
11727 -0.46905676828213155 1.3397444117470849 3.7199562684901788 56 51 45 0.45608573664017998 72 1004 99 744 23 657
1454 -0.53585983381246327 2.5193321857606046 2.7305784499326706 166 155 147 0.6768908802953596 49 1397 66 1331 10 1093
6640 -0.17298993333000781 1.3264457140579375 2.7924260284096394 124 32 23 0.844916981464095 43 712 24 694 70 1083
6642 -0.69303451681557515 2.0633792067106809 3.0754763760690702 170 140 102 0.55404725510912833 43 615 24 712 29 697 24 377 8 648
1556 -1.1944125847924969 1.3115988249318278 2.4389183833012513 208 174 124 0.1814867546471175 66 392 89 404 40 567
11829 -0.41583103316065029 1.2896143847385058 3.7005599679413073 60 56 45 0.8856518704603854 14 104 47 87
6643 -0.62568443479551861 1.0940395031462204 2.9757990300773907 153 146 125 2.5131878973897801 86 818 24 730 70 425
1557 0.011078197298497039 1.6935984625567024 2.4057598872357375 84 18 11 0.6650246447232665 89 406 40 331 42 731 10 311
6644 -0.83224014720158124 1.4463233435195864 2.5825819238523198 255 255 250 1.4981741100430497 24 735 8 780 17 486
1558 0.54666601104277224 1.8315563871672902 2.4706269142054347 225 219 235 1.5463094806958162 66 278 89 407 82 412 40 233 71 116 49 91 36 94 13 101 16 66 80 118
6645 -0.22420335741439129 0.96004676167328951 2.8838885169056447 173 159 155 0.12151799902189261 86 1016 24 736 29 1096 70 1005
1559 -0.0234331474766695 1.66099764520298 2.418720389714192 156 137 101 1.1939660107457186 66 390 89 408 42 800 82 283 40 328 71 212 80 357 4 332
11832 0.55499301019092973 1.3806585746233915 2.2155612085538063 40 38 40 2.3614434356688694 72 150 47 189
6646 -0.22704221263527302 0.92685237634976514 2.8672640594625585 166 154 148 0.75233533774052153 86 1025 24 740 29 756 70 943 26 1278
6647 -0.14064531991218943 1.1025724595050446 2.5503213095764274 81 27 22 2.0838357148964239 86 1123 24 743 8 528 26 470 70 998 73 908
1561 -0.81722209924794076 1.3112394428412066 2.6821901467465632 255 255 255 0.68182381282418314 66 535 89 415 42 331 82 350 25 336 16 300 36 254 13 239 97 353
11834 0.91936114232767419 1.1089542767320213 2.4420292264680894 254 228 155 2.4545703466255535 14 210 47 231
6648 -0.59454685156163611 1.1742696561160129 2.5504677561982252 77 6 4 1.0137536882467888 43 473 24 746 29 1116 70 988
6649 -0.6354754674348273 1.134464692464394 2.6513170490809084 112 15 9 1.706833257772099 43 382 24 748 8 1103
1563 -0.34967869542804225 1.2840760321138376 2.4249520728561129 114 14 7 1.8794127902863156 66 303 89 419 40 1152
11836 -0.98870738258825652 1.3937846876186386 3.6514257405604202 0 0 0 0.230719964008477 72 385 47 322
6650 -0.6294291843985117 1.1304080505623506 2.6107770279944473 255 255 252 1.9184351600066039 86 1002 24 750 29 1110 8 1102 70 719 26 688
6651 -0.80279196533854358 1.2364312857036805 2.6174613511514404 205 177 147 0.87094755209011776 43 952 24 751 29 1100
6652 -0.59807209236409564 1.0549827279793007 2.6548733920500363 136 88 75 0.56463308361898856 86 1005 24 752 29 766
6653 -0.97890836175367901 1.1489450814471394 2.85064889457102 77 59 45 0.11075238239277468 43 731 24 753
11742 -0.99448017410949752 1.4504547626636819 3.5518834594595905 230 201 184 1.6505234268195241 12 1273 99 817 23 782
1469 0.11660261818352738 1.963668430073374 2.6008525237520685 87 12 6 0.13562598655103159 49 957 66 1399 89 1407 82 1414
6655 -0.13966903918208581 1.040930866758661 3.1505203712219507 162 43 30 0.56407363168810343 84 835 24 768
6656 -0.17754782891193041 1.0964666692062282 2.9236931811728861 188 160 168 0.76185654883693399 86 824 24 770 29 981
1570 -1.4344374028377469 1.7858669183668261 3.207959423150883 0 0 0 2.4088804878486743 57 913 89 462
6657 -0.20820678400268477 0.98867206754831838 3.1050223646213619 147 33 18 1.0669339934511755 86 832 24 778 29 791
1572 0.62430099539970818 2.3779284681127972 2.6673016629168771 124 114 111 1.5827988686363752 57 343 42 444
11845 -0.972744579602696 0.9427282511618803 3.0965652599782318 0 0 0 0.52422577853867103 88 542 47 552
6659 1.1727290710166516 1.6175310205478663 1.6492436740708136 0 0 0 0.36536400533713009 43 1189 24 783
1573 -0.81952633914319051 1.7246900542457271 2.6075473524851609 156 16 15 0.96756232208793636 66 1463 89 501 42 994 82 1416 40 1461 25 1422 16 923 36 1268 13 1027 80 950 4 1233 97 1341
11846 -1.0259203901440723 0.82286164166218789 3.1161269183133493 248 255 255 0.22305525752661065 99 461 35 632 23 491 3 464
6660 0.61544222666099369 2.093532258803918 2.6984053227065621 182 158 118 0.50712706962812015 24 784 29 451 8 612 73 550
1574 0.052109482404634221 1.8157783019267633 2.8425752065722456 115 21 22 2.3680227087894665 66 1414 89 514 40 833 82 1441 13 1171
11847 0.26758412722304609 1.4070730428908642 3.4921204521451492 157 143 139 0.20016933104563744 9 678 47 596 32 827 3 1054
6661 0.66165288000942335 2.0602889991290123 2.7530986303290872 110 90 51 1.478080324340751 86 881 24 785 29 842 8 794
6662 0.38468047536015776 2.1171089036155744 2.9603685173917618 0 0 0 1.9327268527109449 86 326 24 790 70 646
1576 0.64038810462208007 2.3204782875564192 2.6792628311714921 125 108 90 1.5873528304788382 66 445 89 521 82 534 40 538 71 351 16 98 36 100 4 91
11849 0.69362719160927633 2.1688543998664334 2.9165609135801338 0 0 0 0.41679730932835696 31 1422 47 645
6663 0.6150630883111895 1.8334395062734987 2.4592563572351653 39 28 16 0.1211296705717655 86 603 24 792 29 804
6664 0.61886898399460655 1.8229704296684812 2.4876702715595762 50 41 32 1.0532180507156919 48 413 86 1311 24 794 29 805 8 1183
6665 0.69078407320535018 1.6895652272768298 2.6054838915065139 90 73 56 0.14933853068374811 86 850 24 800 29 808
11753 -1.130371771372358 1.826880518749131 3.5048594563596769 147 137 137 1.6934342851020647 72 909 99 905 23 887
1480 0.39129127429094673 2.1176612902754899 2.9801110812491434 125 93 84 1.4660531648906818 57 1290 66 1447 89 1483
1579 -0.61737380949639153 1.8477824857635952 2.5881649177382919 22 20 20 1.6959638158706323 66 509 89 528 71 496
6666 0.62556513068356423 1.7490172021408952 2.5337938792171069 60 36 30 0.93388573054782631 43 885 24 802 29 810
6668 0.44036888243335182 1.007117772506569 3.0283005884841785 221 192 152 2.0098243718596929 86 277 24 820 29 748
1584 -0.80196356845199779 1.2563739942040553 2.5770275879946292 227 248 255 0.85306671111043808 66 551 89 554 42 407 82 904 25 406 16 298 52 459 63 604
6671 -0.57209753177996203 2.3920407407521784 2.5807836497118628 184 172 175 0.68110466816330917 43 858 86 949 24 840 29 896 8 1259 84 660 70 1201 26 892 78 887 19 1002
1585 0.59977397984382175 1.6452813354976283 2.5038601173266266 139 127 123 0.62403197930780197 49 583 89 555 40 619
6672 0.26112383518242904 1.727198011096154 2.3383205768566437 213 180 135 0.16788327773246139 43 1162 24 846 29 1288
6675 0.62540018788116958 1.3024906742486257 2.3467572620518276 235 194 140 1.5969481752568442 43 827 24 858 29 1257 48 1338 8 1262 17 1025
6677 -0.53368933830368526 2.558855188074141 2.6141902195761211 100 81 40 1.8904323526979219 24 869 8 110 43 83 26 130 98 107 65 120 51 94
1591 0.032807716196939139 1.6859390371156902 2.3550423294952236 77 68 64 1.0327943971617595 49 777 89 583 82 610 40 609 71 555 10 621
6678 0.68218470618793359 1.5825855238944737 2.2441779337626686 64 56 52 0.28416840085813633 43 846 24 880 29 827 8 1121 70 950 96 1185
1592 -0.38953830434709741 1.4610886553502285 2.5235093238772053 55 39 19 0.88703629653640936 66 775 89 592
11865 -0.99781747342640459 1.457450405462666 3.7864618000996528 211 206 216 0.0045043909943957572 14 1034 47 1031
6679 0.57268700193731492 1.6443739309511518 2.3042682025376808 142 25 16 0.11234161148469778 86 1193 24 882 29 880
1593 0.49698885236224516 1.3834518508602314 2.2146347265526067 212 178 132 1.5787765479794191 66 411 89 602 42 365 71 808
6680 0.59438977970494733 1.621608784704005 2.2801263944762487 124 16 10 1.2347852371745578 86 957 24 884 29 939 8 1111
1594 0.90109666330676996 1.2633175869398243 2.214059113686409 189 152 109 1.2380746312166475 66 1166 89 611 80 385 4 366
11867 -0.83912393499928073 1.3960007139600279 2.4344038134812429 245 246 250 0.22139034846460076 9 17 47 1076
6681 -0.47065186268792591 2.4044061112699859 2.6243179141998025 114 103 75 1.7902771639482471 24 885 29 618 29 890 8 845 26 873
1596 -0.90320319814334193 0.89617969010466592 2.9141341925950286 53 38 32 0.60997290000479343 66 641 89 642 82 1186
11869 0.55488837969681781 1.1915567737407533 2.4093919045024941 255 255 221 2.9897249220999047 14 1334 47 1121
6683 -0.81997570496889149 0.57213490558644553 2.4172405904688348 232 197 150 1.5516542818685852 74 909 24 891 29 910
11771 0.37050394150168936 1.6220350089940014 2.8688067803497579 101 84 43 0.46906358550406108 12 980 99 1158 23 1314
1498 -0.23988958862705187 2.4592918098812473 2.903993409789134 52 46 35 0.36533744824248959 66 684 89 618 49 933 82 994 40 550 71 1029
6684 -1.2371032441258181 0.44170650290676533 2.7257963043688078 229 206 164 0.47757578816148055 43 328 24 894
11772 -0.14611036336118136 1.2641174719069799 3.0129497298726537 180 52 27 0.02267315646514927 12 1345 99 1165
1499 -0.67684697159145135 0.45257814390903023 2.6313827693370428 206 170 119 0.76864528042894331 49 1202 66 1028 82 443
6685 0.68404314961329216 2.1532444866164115 2.8138624739696159 103 89 61 1.1948344740253936 43 800 24 896 29 838
6687 0.36696476505727144 1.930037194079592 2.6444175408159323 121 97 65 1.1032179639932866 86 893 24 903 29 903
11779 -1.1075204086942529 1.947740945990371 3.4402818439471026 72 66 63 0.28768407574270372 72 1319 99 1191 35 889 23 1205
1506 -0.55058880787904452 1.4917281623223067 3.5702061185567606 0 0 0 0.70421031571792669 40 38 82 46 71 38 10 51
1605 -0.51375821617142192 2.8001054000863945 2.5571495879249282 60 59 63 1.8283266221944279 49 1447 89 682 42 1333 82 1426
11878 0.87623077373052538 2.2368487253856069 2.9845820399152139 233 242 255 2.2455500535292829 12 489 47 1463
6692 -0.82987595169871942 0.92336167322641216 2.6385220484191461 96 57 44 0.94286600115389474 86 547 24 915 29 931 8 926
1606 -0.69418071602733133 2.4107677656393647 2.7618546967948121 28 21 14 1.177995214916955 57 986 42 1321 16 1071 25 496 36 669 4 414 20 371 53 337 37 361 44 369
11879 0.20879787270868194 1.5150231124266087 3.154444977874157 119 16 11 0.66913608158644022 14 1151 47 1468
6693 -0.92541926713675193 0.76984899717856559 2.9576385343497966 192 177 176 1.0760700110905144 24 919 70 448
1607 -0.57586557479138833 1.9392665852677922 2.9463149979048335 28 23 20 1.5634683897855792 66 661 89 695 10 1104
6694 -1.5159039377953976 1.2639251763155877 2.5707126224801362 255 233 187 2.2458280228138459 43 903 24 921 29 936 8 930
6695 -1.4310422678144077 1.2937859367562392 2.4606769815645344 255 232 184 1.0209642701869761 86 557 24 922 8 1026
1609 -1.5271537773640789 1.8825737896760499 3.2770907633964246 62 49 32 0.29407458826281691 49 903 89 700
6696 -1.3498003598247654 1.2152170228296166 2.5515067286893034 255 233 174 0.75845891644483576 43 898 24 923 29 594 8 582 70 553 26 371 73 343 96 364
6698 -0.15389806047752594 1.0642665539053724 3.1072552473243036 135 21 15 0.34921434851680355 43 1080 86 1112 24 930 29 949 8 936 70 1113
6699 -0.9836220547920691 2.0746582894679477 3.2707381005279266 117 105 92 1.1474678582477142 43 698 24 932 29 1002
1613 -0.99019700956774459 1.4248419351144321 3.5356657726096996 1 1 1 0.61382653541739907 66 720 89 712
6700 -0.14648133313677494 1.070883096142121 3.1169279964709053 159 140 124 0.5368841214004868 86 1146 24 934 29 942 8 701 43 680 73 822 2 494
6701 -0.18754131157647227 1.0022197202935474 2.8402899450662233 121 46 23 0.76758575826975117 86 1059 24 938 70 1133 26 773
11789 0.2059981276779147 -0.85386528587076604 2.6256167836264752 206 44 30 0.96082980790658756 72 1119 99 1275
1516 0.61364198279549731 2.1547954293788627 2.7887355483967262 139 120 55 1.2063940373852893 66 122 42 96 40 70
6702 -0.13750242003992488 1.0829247271524136 3.1172133883988766 117 18 11 1.3447065848345108 86 1143 24 940 29 945 43 664 2 332 73 583 22 437
6703 -0.19829593916724919 1.1114772846235557 3.1622341787016848 182 173 174 0.18620098555367098 43 1072 24 942 29 946 70 1148
1618 -1.0657912792408026 1.2475177468687577 2.5468257096911158 194 160 112 3.0061762255923652 79 278 89 778
11891 0.037763573765352658 1.6882154537535787 2.8020030277929155 120 17 18 0.45228697320445965 14 780 77 777 47 701 72 1437 12 762 99 521 23 535
6705 -0.2423500252011134 1.2253929754316137 2.4880414572399707 160 132 99 1.0766825805779618 86 1324 24 957 29 974 8 972 70 955 26 466
6710 0.57393579812515294 1.1283644613328747 2.4119824966617993 217 182 138 1.4336103276223273 24 1020 29 1004 8 1201 73 422 96 583
1625 -0.61899570860747277 0.9647209040605681 2.6608589306511869 162 145 131 1.732010008305678 49 1069 89 842 42 630 82 462 16 1119
11898 -0.7156728357937715 1.0618498121943392 2.8964279184122237 110 109 114 2.5670824168751372 14 196 47 152 77 223 62 368 67 287 31 300 94 316
6712 -0.81686331547277713 1.3093572314137436 2.6577795149974923 142 128 116 1.0225846754480772 43 1066 24 1055 29 1303 26 975
11800 -0.30784981652533788 0.99142354135608413 3.299337122657799 195 43 34 0.47172331217427388 72 1460 99 1339 23 783
1527 -0.52976612401687528 2.5801946833377865 2.5959315192144108 0 0 0 1.2171733289532476 66 532 89 171 42 353 82 724 40 388 71 494 25 275 16 268 36 470 13 211 4 285 63 478 52 1534 34 261 97 800
1626 -0.90702422558177909 0.90144848636243913 2.733373037642441 0 0 0 0.54241940472755301 49 443 71 427 10 677 16 585
11899 0.027173463223258865 1.4179031882240898 3.8739705527283941 137 126 100 2.2091039886686499 72 690 47 94
6713 -0.24649361433568223 0.94135317762893422 2.7817597990821277 109 54 23 1.7383419631429016 43 1070 24 1061 29 759 26 278
11801 -0.21103748426981364 0.99959211282336846 3.2890161401770568 214 53 33 0.08959233389255461 72 1469 99 1344 35 1045
1528 -0.69944003602172189 2.0565654601921435 3.093841539480604 81 82 80 1.8657055546505323 49 170 89 172 82 134 40 205 71 168 10 268 25 726 82 975 36 345 13 343 80 223 80 606 4 584
1627 -1.0812132316280907 0.57954109916272223 2.8177039867601916 255 255 255 0.39165129220263944 66 1034 89 849 82 1170 40 1135 71 1180
6714 -0.1489870179995702 0.8258461169830863 2.9622515566273719 255 255 255 0.10666404274818353 86 993 24 1063 29 1084
6715 -0.23406632176842807 0.94856918059774353 2.8601660201110728 110 26 21 0.23484791397543614 43 1062 24 1067 29 1090 8 1072 26 1074 70 1010
1629 -1.0885292510573448 0.59096529331663072 2.8383539777394859 255 255 255 1.1582102277038224 66 1037 89 851 4 706
11902 0.66933777470284128 2.48473453155305 2.6625554749018416 1 1 1 3.0766348660262155 98 524 47 661
6716 -0.13402746180197189 0.89767444723781764 2.9346212626692343 255 253 180 0.2529864187612173 86 1018 24 1070 29 1098 70 746 26 460
11804 -0.19721634118345432 0.94000864682528429 2.9066396461976831 104 22 13 0.13281552367889068 12 1161 99 1357 35 564
1531 -1.1060001869387095 0.75699605983701868 2.4405339503856651 0 0 0 0.027223050193853481 66 422 89 192
1630 -0.2001312898424587 0.95537588376811777 2.5623579703149764 166 150 143 1.9513525238878369 89 863 42 604 82 684 25 887 16 847 36 607 80 719 80 586 4 748
11903 0.0050608624052439826 1.6395240823426518 2.3892585858044875 158 143 133 2.076132756816043 77 1139 47 833
6717 -0.512047471957357 1.0206384004051561 2.543287490039956 254 254 213 1.035605622892001 86 1007 24 1080 29 1101 8 1084
1631 -0.47656367583108716 0.91484329140466958 2.5731995958019724 185 163 136 2.5098893942286042 66 567 89 864 82 1421
11904 -1.1415962439980225 0.53404370192148554 2.9721381336852768 181 163 154 0.38278811937554819 14 1196 32 1237 62 972
6718 -0.58982793094649133 0.98462562036535162 2.8758624519005642 146 134 113 0.73154106637170813 86 709 24 1086 29 830
1632 -0.5093006150042757 1.2302518130732067 2.5323833649969294 123 36 22 1.4165078587641036 66 870 89 875 40 568 49 375 10 447 80 936
11905 0.038244464324893236 0.94535557109798685 3.3863141703113677 43 41 42 0.155464927308097 14 1561 47 1343 35 1178
6719 -0.7808808351497627 1.2321596908901291 2.5025409439110224 151 133 123 0.35139347431824092 43 726 24 1087 70 994
1633 -1.3760624131930934 1.7845390482430765 3.1608658932508029 132 106 68 2.1806960338179464 49 990 89 900 82 967 40 1328 71 1350 10 706
6720 -0.76613442728365222 1.2526991664987412 2.5600975548313887 128 21 12 2.2455848981260549 84 1182 86 996 29 509 8 1169 24 1093
1634 -1.0549468251186134 1.9185065781327764 3.3387463413773593 154 140 124 1.1659518703901925 49 914 89 901 82 1336 71 1514 40 1528 16 1011 80 862 36 1228 4 880
6721 0.65722210369685119 1.6359445181975905 2.2025184699034233 90 72 49 0.74782915997209432 43 567 70 936
6722 0.59032777145069082 1.6856907273256525 2.3128610138282291 91 65 30 0.15646590573817482 86 866 24 1097 29 1134
11810 -0.9902793541744771 0.91788835674031 3.2040181762791873 43 36 30 2.0492260168981042 9 365 77 234 72 277 99 881 62 953 94 1081 31 1170 9 1127 35 842 3 498
1537 0.63331856009801335 1.4699936557124706 2.2768922014247321 0 0 0 2.0293551353172301 66 322 89 226 16 440 52 430
1636 0.69040829996713926 2.552849007170146 2.732730513180504 96 91 82 0.95761285223920745 66 889 89 927 82 1343 36 1388 13 1322 80 1295 42 904 4 1256 20 927 53 629 60 753 37 759
6723 0.28034582911157535 1.3059601987874312 2.3289833967696354 121 26 18 1.4458505167011182 43 629 24 1107 29 652
6724 0.64805218465018222 1.5389183146644076 2.2285848702298541 103 25 21 1.4243526508254791 86 840 24 1117 29 1259 24 1237
6725 -0.52927381290204345 2.5241235596354095 2.578428775706699 177 157 131 1.0763093580317282 43 1115 24 1133 70 1355
1639 -0.84087393051785986 1.5881220227764317 2.6029784601531194 122 21 19 0.57948232174189918 66 1121 89 969 82 609 40 765 71 902 10 923 25 280
11912 -0.36303640297885498 0.9684263093828156 3.383500125012457 234 170 163 1.0040002014233185 99 13 35 11 23 8
6726 0.17642937465583627 1.967268109384223 2.5820577775648941 87 14 10 1.8916758867598804 86 1174 24 1134
6727 0.79583024385214862 2.0463862387357215 2.8808228274253791 134 126 123 0.26091054812909037 86 624 24 1141 73 737
1641 0.025105535564724068 1.8909036622392732 2.7465639093208858 253 253 254 0.28022521765466679 57 1303 82 1412 71 857 10 800
11914 -0.46124643993274017 1.2527922873400714 3.2707785454403155 215 39 36 2.6242304199652713 35 28 23 32 81 24
6728 0.82901146110409996 2.0727562963709754 2.9370989034316395 0 0 0 2.1024777668882497 84 1333 24 1143 48 1342 29 1167 8 789 26 1231
6729 0.64309850392161449 2.2610777699646758 2.8887294141282052 0 0 0 0.52172857876416723 86 1249 24 1145 8 1159
6730 0.65510156939926001 2.2535928937240919 2.76000981534738 253 255 255 1.1553714173300298 43 1187 24 1146 8 1149 26 837 73 653 96 1206
1644 0.50959339351331789 2.0802203153061303 2.8353006777573246 112 93 68 0.22848117536453899 49 1281 66 966 89 984 71 1054
11917 -0.33213359885139793 0.97752452719152072 3.5252962706569702 40 23 9 2.3517947475861605 12 31 99 31 23 15
6731 -0.13837155463768469 1.0710928235109705 2.6095330749510288 200 180 166 0.1035230024909725 43 1050 24 1153 29 967
1645 -0.62829530796191779 1.7874599005659424 3.25755222334067 38 34 31 0.56264737618896554 66 674 89 1006 82 1069
11918 -0.99929069149647975 0.87080985607561767 3.1109425354879208 159 146 140 0.57077297412425165 99 94 35 66 32 106 3 88
6732 -0.49746717158137654 2.6843341733507429 2.5649834328960184 191 169 137 1.8380439381848666 43 1198 24 1160 73 950
1646 -0.85548188751844756 1.7441700485343876 3.2761508530149341 19 18 17 0.78097941846567998 49 749 89 1008 42 436 57 500 82 794 10 1101 61 925
11919 -1.2349081850586863 1.6647645296015938 2.5214633052187123 0 0 0 0.81982204950303084 14 1273 35 73
6733 0.65993432124301077 1.7959944236842675 2.4704680251719005 78 61 44 0.18278002294273135 43 768 24 1168 29 803
1648 -0.60542029380202733 1.913599946102664 2.8852977124719996 182 163 149 1.5279840307850752 49 1004 89 1010 42 1455 82 1385 25 530 16 746
11921 -0.47447250772876193 1.2017153774132203 3.3821125248575052 188 39 36 1.0441190085825918 12 180 99 119 35 106 23 81
6735 0.29150577652501719 2.2185356841441211 3.110887105161654 72 65 55 0.10877062190482199 86 877 24 1170 29 849
11823 -0.20234037229225924 1.0890846642791745 3.1218971344426412 60 16 14 0.76858729325688957 12 704 99 1335
1550 -1.3213033569057577 1.7894701292448523 3.1830716162428119 130 105 75 0.68579195179935937 66 346 89 326 71 357
1649 -1.0346473043449382 1.2184463204991793 3.4125413531164543 91 83 79 1.4830004394811676 66 504 89 1040
11922 0.8326751731088492 1.0272673146269635 2.5971327679070586 0 0 0 3.2520438643496172 12 56 35 107
6736 -0.61805361188620755 2.012602801229435 3.0317039046073622 94 79 49 0.68915366618649843 43 832 24 1178 29 956
1651 -1.105349685353632 1.1558097141753441 2.5724453548480133 162 135 97 0.4474845458276594 49 1280 57 897 89 1056 42 1144 36 1287 13 1053 80 940 4 795 20 1075 53 940
6738 0.67411802248731556 1.3056376533456429 2.2946186496832732 226 188 139 1.6072744835152382 86 1207 24 1195 29 1215 8 667
1655 -0.67848227201511724 1.1978966488652283 2.5922073273696515 131 109 96 0.086525045353154278 66 1084 89 1088
11928 -1.0424980171934051 0.56033713462569279 2.8344950500325372 105 87 68 1.7812200858018976 99 340 35 231 23 202
6742 0.12226043348042588 1.9089199314978473 2.5495632601695215 221 199 164 0.31101856869597777 43 855 24 1209 29 1262 8 1263 70 933
1656 -0.94203063376739304 1.1491603233777408 2.545296322798912 46 40 36 1.1503870050401175 66 1088 89 1093 82 960 40 913 71 827 16 604 13 1178 80 984 4 1249 52 463 63 456 11 589 95 965 39 702 34 559
11929 0.3046627853431309 1.3621719892206712 3.5241532427526416 0 0 0 0.67173088417041227 72 497 35 270 23 125
6743 0.57792088766874838 2.0102213309574033 2.7123644050353963 130 114 102 0.52160345649541284 43 809 24 1213 29 846
1657 0.22817379182845959 1.7403225189515634 2.3805789699421656 76 14 11 1.0495285637505229 66 1114 89 1113 82 862 71 888 10 1254
11930 0.28734656484229293 1.3409448036488567 2.6258218918235752 237 234 194 0.77092129640800533 12 232 35 284 81 144
6744 0.3979360157000596 1.5964117935812929 2.3802975645991178 66 6 4 0.24023049097332233 86 962 24 1225 70 893 26 661
1658 -0.52435039056960597 2.5426295084751844 2.6122874774093567 215 241 255 1.796827852882297 66 1336 89 1117 82 1434 25 1047
11931 -0.35026885862063623 0.8618474815371524 2.655231855822703 237 246 255 0.6017917994119184 99 195 35 307
6745 0.46557270124544903 1.5994892421072295 2.4679950561412909 169 144 114 0.045730360364013178 86 1164 24 1227 29 1265
1660 -0.79614606085691542 1.2991377509845472 2.5551619486588102 141 25 19 1.1521795361056657 49 1504 89 1141 42 1106 40 1251
11933 -0.90858846921476344 0.66111385931974087 2.4791042049968297 243 205 156 1.0972508688986398 99 218 35 337 23 400
6747 -0.49388828173356697 2.2580838848670015 2.4833619627785852 135 126 122 1.5878847650185322 86 1148 29 490
1661 -0.44698276740694182 1.2208334447402018 3.2142814530029087 251 252 253 0.027336236273165816 66 1129 89 1146
6748 0.4596966796505344 1.5801478662527935 2.4690633737879244 255 255 254 0.45291300683477043 43 1164 24 1233 29 1289 26 649
1662 -1.2150766461340086 1.1822249243127079 2.5458924855440714 211 176 126 0.5329558683736646 66 1289 89 1147 42 1117 61 1283
6749 -0.53471764376795738 2.4152421925646901 2.6123092649280144 198 185 186 1.5605732827756673 43 1134 24 1242 29 893
11838 0.57074704645785967 2.1852241672131187 2.8922192360632355 0 0 0 1.3910955980263637 77 510 94 716 47 456
1664 0.55928129506162916 1.1501671211673774 2.3494922397775233 254 216 172 1.8461700738105655 66 854 89 1174 82 1167 40 1126 13 123 61 53 87 57 71 1533
11937 -1.137765552253559 1.4285082719837503 3.7604245317504574 144 135 141 1.3516317464177021 9 658 99 296 35 378 23 309
6751 0.15602267974633227 1.7213375422401909 2.4205938301968599 76 66 56 0.67887632582757085 43 1283 24 1245 29 1212
6758 0.40950371323345408 1.5622687152187054 2.3883610074802069 81 69 64 1.2397281090443999 43 1175 24 852 48 1267 84 1252 29 854 70 852
6759 -0.35119662779972677 0.85543225255193611 2.754255232163485 216 210 210 0.2537416619356429 48 722 84 1004 74 697 79 681 43 854
6760 -0.13555938644097107 1.4078034399533583 2.5994070547722035 36 22 13 0.79479657323936603 43 6 24 3 29 3
1675 0.11713613860603382 1.7420076658707946 2.3960836982411822 25 21 16 1.4884321071174373 66 1456 89 1257 40 810 82 849 25 851 16 813
11948 -0.85631426155233836 1.6581456749022234 2.4856778326667666 0 0 0 0.31208829737033117 9 588 35 511
6762 0.13172821397670009 1.7459242719774242 2.3932054690456837 53 42 30 1.1491456247850467 24 80 29 78 70 85 98 54
1684 0.14426485839588021 1.7367812944063399 2.3918833286427752 111 91 61 2.1325419001252515 79 1400 89 1326
6771 0.27624110632848975 1.6936740665040675 2.3189505035776352 59 19 15 0.56737404664295354 43 649 24 849 8 847 70 701
1685 -0.6237349440005987 2.0505678534120406 3.0070039755574385 0 0 0 0.39422994178892812 66 620 89 1342 40 1321
11958 0.22667328579839402 1.4793231491595413 2.2386698508651781 233 198 156 0.19911400232432397 67 906 35 694
6772 -0.42591763209103128 2.5406381602951429 2.4135151727063211 185 163 139 0.71762396389239924 86 1264 24 863
1690 0.064908766150104505 1.9264432692298326 2.6694049544774461 142 114 79 1.2479003066616474 89 1406 10 1399
11963 -0.16438224043030142 1.0114679909913453 2.5930281622079332 255 255 221 2.0413396480705321 35 747 32 745 3 747 81 614
6777 -0.31782972301792572 1.0847775245123759 3.379929181493325 255 255 255 1.0904588936545387 86 23 73 44
1691 0.47305623054970014 2.0567475994699409 2.8367299794658383 6 1 1 1.9992044148343215 66 747 89 1415 40 985 71 505 10 174
11964 -0.33473794436206655 1.03908135181049 3.2673683644087674 170 39 30 0.79154101081412598 99 864 35 786 23 340
6778 -1.1097282884906448 0.85915760728341284 3.1879825973837739 254 228 212 1.6151954316306929 29 38 24 19 73 17
1692 0.55478253479379369 2.0457338803185117 2.7885795866480714 120 110 103 2.0527287007947881 49 1368 89 1418 40 1355
11965 -0.17236704760926502 1.059327756434191 3.1519603536156358 254 255 255 0.63757264463175511 99 613 35 792 32 1055
6779 -1.2134632415321345 0.84716879136105383 2.5903613439716935 255 255 250 1.6024977485112415 24 42 43 38 29 40 70 34
6780 0.52935780260205045 2.1298262396937413 2.7883357079908579 0 0 0 1.0572873365279429 86 81 29 56
1695 0.12330970765997365 1.8042793814194236 3.2320268477822975 86 64 43 0.37374570743434599 66 1421 89 1461 42 1376
11968 -0.013734565487379889 1.4989734916552726 3.8720628063760558 153 120 94 0.72673110402529428 67 897 99 924 35 800
6782 -0.97004566194272357 0.8988639364433173 3.110798854920684 164 145 144 1.0022226097905165 24 71 86 88 29 66
11874 -1.2268325392510377 1.8177343500398098 3.2455814679055819 34 28 29 0.70738236045802239 14 1491 94 746 47 1334
1601 -0.58168509470917351 2.1667709786275844 3.0107191154544788 0 0 0 0.32797726617701939 66 704 89 657 42 505 82 558 40 496 71 677
1700 -0.79720056782309556 1.2580435360733839 2.54709702011061 71 33 27 0.44263314666270498 49 1256 66 788 89 795 83 875 38 941 42 769 25 813 16 599
11973 -0.41278551079786485 0.97769912220793087 2.8263887140336257 92 35 36 1.137358851780786 99 749 35 873 81 531
6787 -0.67614641181957202 2.3939451487449022 2.7479292191122759 102 87 56 1.1749734581936839 24 158 86 257 29 152
11875 0.11757222943605891 1.5072844547728801 2.9927167211392556 125 21 11 1.7558263326601453 94 1489 47 1405
1602 -1.0531484941672469 1.903288369148904 3.3277022537025425 40 38 31 0.40188096211624469 89 662 42 704
1701 -0.70262133057890253 0.950841267607901 2.6232619419604806 42 28 19 1.4479325309157365 89 454 49 641 66 597 42 842
6788 0.49470737744885562 1.2902875994884593 2.4141795285415339 255 255 159 2.2264987392652755 24 189 43 73 29 158
1702 -1.329256119704074 1.3226897495680325 2.6522634635669919 0 0 0 0.98536590076672725 57 104 89 261
6789 -0.57526812114564674 1.9284430183022039 2.9648027675834419 0 0 0 1.8780027984146377 43 96 29 169 8 151
6790 -0.48931351938572659 1.4513784828434504 2.8152638835684733 157 135 133 1.268203086033842 43 665 29 191 8 279
6791 -0.60384147509227581 1.1539941196397179 2.5294680184313689 159 141 131 1.3838592632408695 43 200 29 203 8 182 73 162 96 173
1705 0.43696605061816629 1.6002984782960283 2.4698866695434454 139 59 46 2.3026125617012072 66 1061 89 563
11978 -0.64942311739146508 1.1508757928332307 2.51958313521419 106 80 66 1.1413988502922101 99 933 35 957
6792 0.6345969422631984 1.6064090672167299 2.2417591956078065 81 65 46 1.4754812579785268 24 259 29 213 8 235 70 331
1706 0.56425425034239363 1.3250331553281915 2.5224200405032948 222 187 142 0.00024668225317706158 66 407 89 939
6793 -0.48975534048851987 2.5580147574422387 2.5518063613822668 201 181 167 1.3155776462688051 24 226 86 228 29 218 70 228
1707 0.34679625735214425 1.3838674329098548 2.5585660018888388 254 253 253 1.0085572844814332 89 1279 42 823
6794 0.88080540133095753 1.3425149865027473 2.2933739184418251 254 215 139 0.32724199640433049 24 258 29 247 17 20
1708 -0.66496723009592518 1.2245193767067371 2.6621536834253812 142 16 9 1.9604637952287256 66 810 57 144 66 262 89 300
11981 -0.18935933039652222 0.84487118179834575 2.9751516086950645 174 158 147 0.38258238046010706 99 1197 35 1036 32 1116 3 1044
6795 -0.023954744675746254 1.291873191500889 2.9115044327539836 152 142 139 1.3635875446964387 24 496 43 140 29 262 8 162
6796 -1.1139876824794108 1.0563773594991313 2.6485734905561964 244 197 148 0.72015224692802404 86 329 29 285 8 217
6799 0.60243904226459399 1.1206753688344999 2.398939898770863 218 186 144 0.8817411431111486 24 275 86 383 29 321 8 462
1717 -1.3989144066966246 1.3766978130694285 2.4091732562712056 0 0 0 1.955376257782564 66 52 42 35 82 200 61 67
11990 -0.40929672914580872 1.0839513319650373 3.3610738795353785 174 35 31 0.28097786699155969 99 1341 35 1106 23 1346 32 1067 3 850 81 683 68 771 50 931
6804 0.6009015801808828 1.045734174242458 2.3060483193656816 213 175 129 0.55651523100544309 29 371 8 714
6805 -1.5017517446839039 1.196242273967437 2.6225296880369031 255 238 192 1.5831500442891238 43 917 17 552
1719 -0.60926059390221876 2.0168047249839121 2.9851876215515523 83 70 58 2.0997522148324053 66 56 42 41 82 87 40 132 71 243 10 186 42 170
6806 -0.56506877122588539 0.62482180921247488 2.5262795346394689 0 0 0 0.42606686634679691 86 338 29 386
11895 0.22000512928717819 1.1935991986311925 3.3792178535316877 254 240 178 0.77802296199850773 12 735 99 636 47 953 14 1068 77 1557 35 371 3 767
1622 0.71073820806277543 1.9767630501127951 2.7113083102118001 134 118 106 2.0748235837926319 89 805 42 728 71 852 10 283 82 855 16 1255
6808 -0.97559863370346001 0.69743282321354128 2.4719291292322159 255 255 255 1.2997370827834493 24 396 43 523 29 390 8 347 70 407
1724 0.66974302872506308 2.180875305024049 2.6903236804088704 100 82 69 1.6957390162987771 89 73 82 105 40 105 36 97 80 109 4 86
11997 -0.76249360634133945 0.72446382450463997 2.5300227449006956 255 228 145 1.8541687175304724 12 1191 35 1197
6811 -1.2780778720307651 1.2321331963298057 2.622546315965339 255 246 148 0.45410089054309805 86 1062 26 967
6812 0.59376257495529527 2.0173429580154907 2.7107637259219581 23 21 18 0.3865764727525911 43 426 86 423 29 418
1726 -0.61277258352870811 2.1011195699002787 2.9444577296076941 112 95 75 0.23026065974669896 66 89 40 43
11999 0.68484917459344707 1.8033018403732066 2.0879401126700388 158 141 126 1.1906842340099566 9 1040 12 1160 99 309 35 335 29 294 8 306 73 265 96 285 2 262 22 316 45 374 6 319 88 421 30 394 1 366 62 466 67 461 94 424 31 415 32 438 3 328
6813 0.65011576004410487 1.7145907819063335 2.5538199222482532 60 47 30 0.72376313692668215 24 417 43 282 29 427 70 653
1728 -0.89165082300901533 0.8990836552720971 2.4652502015044067 0 0 0 0.48223246560785749 83 52 42 138
6815 -0.51237564061607377 1.1556750924464951 2.527870780629804 115 87 75 2.1606194731513093 24 1053 43 1082 29 442
6816 0.63344699940280869 2.108777535551067 2.6581854538897454 169 146 118 0.56013371916400112 29 448 17 826 73 549
6817 0.67696463962917641 2.0378571933414698 2.7425717788693569 0 0 0 1.5247697828946851 43 286 86 429 29 453 8 623 70 259 98 349 90 198 51 112
1731 0.058646876776521382 1.7805079692436572 2.4418063210377658 127 16 10 1.2720666113383967 42 176 82 115 40 101 71 70 10 80
12004 0.27296155973663139 1.4010264291033363 3.4578661910179611 103 84 63 2.4566578395948704 14 1055 77 1079 12 1333 35 807 94 1372 14 1086 99 1066
6818 -0.59674494005484535 2.2079392813355136 2.9808098034367752 155 139 112 1.2264786736818678 86 613 29 457 70 475 26 441
1732 -0.86127141941491803 0.67770466045282418 2.4288600214338243 223 186 129 1.5961182420368414 42 180 16 237 36 129 83 218
12005 0.14892124341838384 1.5070281723957464 3.0815761985475301 96 18 11 1.6836357865532947 9 449 14 520 77 517 72 248 12 1355 99 236 47 501 35 206 12 202 23 325 81 210
6819 -0.16690371527964615 1.6415458045886553 2.8541643635160674 98 58 26 0.36924761756609997 24 374 86 457 29 474
1735 0.15752664118588253 1.4639241650328343 3.0769676587883059 195 182 176 0.20088325368421378 89 318 42 197
