# 3D point list with one line of data per point:
#   POINT3D_ID, X, Y, Z, R, G, B, ERROR, TRACK[] as (IMAGE_ID, POINT2D_IDX)
# Number of points: 426, mean track length: 3.3212783851976453
8579 -0.080311367048420387 -0.4088932980045264 4.0945519854173194 245 247 244 1.8407445234357076 2 1799 4 661
9966 2.7926014844034661 0.48497356699319899 5.1352923524872303 154 142 134 1.7068554064529988 14 2136 12 2537
8857 0.92649032335139958 -0.50921022387579773 4.9654304971912087 174 183 184 0.99548124177571518 3 3846 5 4435 4 2841
8657 1.0407758206347137 -0.43508176137968735 4.9123019989036329 27 21 24 0.62597074995514079 3 2842 5 3565 4 1300
8796 0.69572551327194421 0.28331115224843895 4.9287993699572858 60 62 61 2.2294245284746488 3 2487 5 2379 20 1814 4 2415 8 1451
8464 1.4039262582491712 0.40761693310718072 4.7745866066926368 77 83 79 1.9932601017502609 24 1704 26 3604 1 4615
9851 0.6918530576347578 -3.0501932488931311 10.399199778249056 170 157 135 1.5210001830843201 17 2922 12 2587 15 2522
10297 1.4217108411853776 0.61121123879623385 4.835650289541328 52 55 48 1.9005600821907709 24 1611 13 2481 23 3288
12179 0.21206384594379654 0.35401933000974845 4.9011968935966728 18 28 27 1.2709361847932441 7 1208 8 2205
12278 0.73029215046226559 1.988044077069508 5.5090480927007111 175 176 171 2.0273213149445 4 3113 10 664
2005 4.4112291376346038 -2.3487729024143187 10.308508188924542 228 230 225 1.0021298822946096 22 47 21 50
9501 0.11021645179162709 0.2324981451824191 5.0591015022658601 22 25 28 1.7039846252136774 3 1137 6 2117 5 2311
10682 1.2909230816147346 0.40960091901506146 4.8208281756243245 0 0 0 1.0147819679809791 20 2760 24 700
508 1.6660247798537182 0.45117537526197793 4.687256332467995 1 2 7 0.39319670441555032 18 283 16 1755
11030 -0.49960617111728656 -3.2472211520582288 11.65732248268762 207 198 185 1.8461240183366936 12 1074 15 1876
10060 1.096502719179113 0.1397460898547368 5.1729715675063535 101 101 99 2.0648954362461001 12 1177 13 664 15 894
11169 0.1038531268690825 1.2118564840038648 5.4954084783750101 0 0 0 1.245630172910021 12 1954 13 2035
8951 1.1313642169820755 0.3708315442120993 4.961610254408181 0 0 0 0.12948419856134274 20 1229 26 3721
7750 1.6469183896042687 0.81996026875693007 4.873191237847788 22 22 18 2.7274954458900158 2 2598 4 1377
9914 1.0630641756935222 0.11560816764748232 5.20350246381029 1 1 1 0.8624804585269864 12 119 13 112 15 94
12271 1.6228401363081146 0.54317475064909615 4.8347746071214726 0 0 0 2.1949812630588683 4 2044 7 1674
7184 7.7504441430262538 0.1642605848019614 9.414751339234142 145 144 149 1.2688582849809786 3 731 2 700 1 612
8944 0.9375907634174625 -0.53553084538968276 4.9235892443435665 106 109 110 2.7915343934736345 2 1122 4 743
12652 1.196587629928032 2.0284375103496499 5.3788662821135418 185 185 183 1.9291221880646363 14 1088 18 4344 9 386
7565 1.2692099558530126 0.24236100635496477 4.7508365623480389 55 57 56 1.1981073904340669 18 1511 1 4482
2478 1.0634387998035331 0.15951264232876583 4.9493812388424043 10 10 10 1.5257975964960446 22 3055 21 3034
7626 0.51895089100021818 0.2074097849913856 5.0032249119506682 0 3 6 0.62788535771204657 5 3379 2 4071 1 4969
8874 0.79307034046247971 1.10700281435218 5.1779104694403451 174 184 183 1.1251651471590833 18 4179 4 2923 12 2421 9 1907
8977 0.10523778051807246 0.31537306717569674 5.0932281140047317 14 15 17 3.3896530396152258 22 894 4 1826
12728 0.79095347709019614 1.0442667020125267 5.1535555531682 68 70 67 1.0690623156657524 14 607 9 746
7641 0.84118155862297539 0.28214246436226176 4.8753303216160573 11 15 16 0.82585889057307305 18 991 2 4257
2554 7.1823279923507384 -1.1719059489755699 9.6379244871844421 239 240 217 0.71646580014636119 22 3175 21 3666
8968 1.0723834537034742 -0.071206497182624631 4.9812521565812062 4 2 3 1.8668536459437153 14 472 4 1703
9749 1.2618638733233556 0.26809729327905663 4.7540022724408146 60 56 55 2.3421654612714313 16 170 12 1681
12106 0.96065977940692049 1.1356572160012677 5.1363135413416519 145 157 157 2.0003191251425267 18 4453 8 2638 20 3230 22 3349
1932 0.91556432182063896 1.1434090049645549 5.156368669235035 41 52 50 1.9294294043163829 17 3246 22 3820 26 5013 14 1971
7019 5.4586445704870208 -0.24709945800160549 10.231803870281809 215 212 207 2.26382248081583 3 66 2 62 1 54 4 39 5 52
10253 0.71178126042819279 0.81275437972018894 5.0934008580716421 131 132 127 0.94527621011750673 17 3222 13 2097
5166 8.618359495903503 -4.9368557325376905 8.1485757871654751 174 169 174 1.7162004191883558 26 1178 24 1101 23 1118
8124 1.4468211893564922 0.41009313160733268 4.7595601771186464 29 38 33 0.53214379297705283 20 1642 1 2841
10481 1.341866714970293 0.14123844214883288 4.6955108903588654 47 46 44 1.5344844400748301 16 1025 13 4204
5394 3.8010253512093115 -2.4467849706312692 11.958231671431502 179 177 178 0.25864858722290834 26 2440 23 1073
12838 1.1548178488965071 1.7190999013425561 5.2753817374011387 0 0 0 0.95103296075103994 4 1245 5 2592
7751 0.91917438436980858 -0.4057357207291894 4.621962105903501 28 28 28 0.88589806203889876 20 2478 2 2639
2664 0.74512221969929238 1.6799990575149164 5.3844019932352394 26 28 32 1.5076537939860757 17 3437 18 2764 21 2727 26 3476 26 5001 25 2446
12094 0.90808056770572543 0.88314668702122412 5.0729334804428516 80 89 84 1.9205552734982214 13 5260 8 2641
1920 0.89820310048760821 1.6371248896633821 4.9520324689772517 48 55 55 1.3729977317337672 17 3056 22 3759
7007 0.29475361600832134 -0.31174351090717672 4.8421044405063718 213 214 208 0.26244036045833796 21 1428 2 19
7354 1.4668085724022792 0.29813953249042824 4.7164477748607494 90 95 93 0.63101819629435318 17 2201 18 2468 2 1859
9711 1.3790976703907527 0.41913715994455925 4.7825649204109313 42 44 42 1.1647499819618417 26 3143 12 1421
7810 0.22821858792491287 0.21729975667374751 5.0231575071408976 22 22 22 0.047566964575456644 17 2214 1 106
2624 5.701912856573399 -3.8266643127834441 12.048801435355141 94 85 80 1.6234035223141072 22 374 21 242
12897 1.6340833472749505 0.52678146965373629 4.8781383676915109 10 11 12 2.2306910572857537 10 2056 9 1879 11 626
9197 1.3733815084737848 0.26112676058206663 4.7250169979679173 34 49 52 2.1392619303937295 1 4524 6 1313
10552 -0.23533903492149932 0.31788591595732618 5.8098810155365648 58 60 56 0.56414237678234902 12 1660 13 5021
9443 4.643099421315072 -0.45633893637123824 10.75130323591695 248 248 248 0.8655972692896845 17 908 6 192
7461 1.1640996116875155 0.24642095148588242 4.7768540149033836 138 144 142 0.78202590223538093 17 1786 18 1521 2 2718
2374 3.1396573487853567 -1.2151844821679969 12.375346726395184 124 129 145 1.5921307007254881 22 2404 21 2295 3 928 17 2178
12175 0.84985002742235982 -0.3780503733324953 4.8777164585170585 25 23 19 2.5281251499266988 2 505 8 2003
2001 4.6130905303483338 -3.2866479239347552 12.469353152330221 37 29 21 1.9861693424393412 20 34 21 28 19 21
7088 4.831611108211205 -0.43231943812286161 10.708377544552823 143 172 204 1.3134817175999809 3 291 5 277 2 299 4 165
9957 0.93163866844633947 0.19441868218385375 4.8485382019286103 0 0 0 0.23416819589814411 5 1417 24 4576
8344 0.66177443492318877 1.6827980700788541 5.4113269309242353 30 33 34 1.3353971200946302 18 2042 20 1474 17 1839 21 3248 17 3857 5 2632 3 2411 2 2421 1 4928 24 3387 25 3590 4 846 6 1278
12618 0.88625521937640428 0.29264973163966201 4.7640298506023218 7 7 7 0.61444562401563108 7 1869 9 228
2345 0.71687944573958096 1.1082401616414803 5.1907611085430974 26 36 35 1.3306617450161531 20 1595 21 2140 16 1147 1 3189 6 1215 12 928 8 1192
7432 0.13294594973168744 1.8387446846895612 5.6021541761293632 63 63 61 0.89692691388254742 22 1716 2 2379 1 4380
11773 0.83426167979385291 1.1227111073183225 5.1591173552711806 0 0 0 1.6373840632302545 7 279 15 694 11 705
1599 3.359810920273159 -1.9877260243301571 11.917211241510104 172 172 172 1.350910785999645 18 86 22 190 21 181 26 291 25 257
8528 1.0635168922914031 0.36485028250916707 4.854930724859817 52 53 55 0.064788162477613376 22 3463 4 317
12133 1.0008019148448279 0.52573341712352595 4.9107040772511548 73 82 81 0.41705858746903968 18 377 8 552
1959 1.7844487475657473 0.99303198847524954 5.0420202710623618 86 93 93 0.29534500050833107 20 2661 22 4173
7046 -0.00042011611499179153 0.12373796342043086 5.0584727680859816 18 18 18 0.63596540131179591 21 2484 2 178
9776 1.5920666050752623 1.0619201830942764 4.9426793081510008 40 46 44 1.5947628003353609 26 3435 12 1949 18 562 20 3103
9722 1.8018300763895605 0.44334172554800139 4.6627500519472118 73 75 74 0.48913016686094335 16 1756 13 5041
10542 0.14794871070405308 0.45375480266038887 5.1262134038895395 19 13 7 1.6197882429698538 23 552 24 1524 13 4952
9433 1.6453303034335445 0.28462732221728287 4.6721038009361839 29 33 36 0.52426486973655817 18 1783 6 3320
12165 1.6406770312283376 0.57992680969297827 4.7651623313606315 35 50 49 0.47564329999572375 18 374 8 1824
7590 1.4777411122572437 0.2854449225617694 4.7047074066532506 65 69 68 1.7437138086970414 21 1962 13 1079 2 3893
11083 0.32710815794145193 -2.8714522293916156 10.706152597922339 138 120 96 1.1010175585740709 13 2752 17 3668 15 2292
7617 0.42507121679946991 1.8750452701905058 5.5365806333796481 62 64 63 0.95214007193428485 21 2078 2 4020 1 2354
9974 0.56830350469437307 1.6459141121795162 5.4222851600570294 33 40 41 2.2822782184172734 5 4607 2 4011 1 5137 21 4083 26 5079 16 2778 6 2570 24 4884 13 3746
11168 0.94845007772206757 -0.19769934624991969 11.530426777615737 185 139 134 3.1466727313093532 13 275 15 315
11194 -4.15722550891814 -1.2935497348798735 9.1416880797092936 206 201 195 2.2428652049489504 12 851 13 828 15 824
10475 0.881538290751675 0.38842866174252927 4.8988702465211231 63 64 58 1.5227399597250253 20 1348 13 4106
8274 0.82469123278973122 1.0260188203148028 5.1096037670905536 0 0 0 0.82770535070962892 14 1003 17 1574
11966 1.3949219123520671 2.0563320688832127 5.3200497036521694 193 200 195 1.2632507656643646 13 3664 8 1708
1792 3.3236151680505048 -2.7952677894241909 11.659594966698505 206 205 203 2.233226346949305 20 1052 22 2294 21 1540 26 2376
9543 1.6471920184858144 0.72185360962687417 5.0993856268505642 52 54 53 1.8201409342628128 14 2684 12 78
9485 0.88701022788475048 -0.48852141607911598 4.6063017306310314 51 49 50 2.5337823687650451 1 1517 6 1642
11842 1.0642684570972158 0.24607417146603541 4.8048725336952982 64 69 65 1.7389446938911599 18 1816 8 918
1668 1.1169680283725538 0.062972646651381359 5.4654710899951393 23 23 25 0.42400650597263839 18 924 22 878
6755 1.3337262952085391 0.24097733787814291 4.7301802484744249 76 71 68 1.9477172726161882 17 2773 14 1815 13 1705 16 2171
10601 0.85194275702893285 0.32668420052747876 4.8853619322602126 47 42 38 0.77811590282714826 14 724 13 696
427 3.1645775399017899 -2.4018476798632662 11.863333252959796 211 207 206 1.329594118437661 20 139 17 103 19 134 26 183 21 140 25 169
9492 0.10289348426894292 1.8229035842968491 5.578422519600589 117 121 118 0.17270784189748389 5 3283 6 1906
12224 0.65557615823270621 0.80414711293376695 5.1036623103177634 121 122 117 1.3965252813785893 8 237 15 314 10 281 9 206
12323 0.5349643517739846 1.0819128478393611 5.2325820030015961 73 75 70 1.5228466739211284 12 2550 23 3390 24 4962 10 1007
2050 2.2761080703819805 -1.1471077017717104 13.231757890130142 0 0 0 1.6661027606771253 20 355 22 308
8924 5.092201199129696 0.61088685396728148 9.9711647277956317 0 0 0 1.972588793323272 2 1105 3 679
7248 0.74990158002757734 0.0058977678282733552 5.3166700272017682 192 191 189 1.0023746018254978 3 1964 5 1490 1 1735
12434 1.6363289891071051 1.9769813826664808 5.0654692066545159 0 0 0 0.053753750562703539 12 911 15 1112
2161 3.6034029749750913 -1.5041008664402358 12.216165793730772 114 119 138 0.017442184545173892 22 1033 21 1035
9605 0.87187304724889847 -1.7631797163263225 10.597037762260271 220 182 177 0.21861263289732571 14 480 12 548 13 800
7190 4.7757215990289463 -1.1064205724551899 12.89634872586986 84 79 76 1.0870294759653225 3 748 5 720 2 712
2004 4.6364132088760108 -2.5974168680256766 11.812928837571482 187 183 180 1.3141947123253053 22 53 21 48
12277 0.68095034469357774 1.9840385837694845 5.519075416590586 178 179 175 1.0543879644383196 13 5064 10 661
11904 1.0607385018264364 1.9623356100952394 5.4061187442679852 0 0 0 0.090874714322666056 15 1366 17 2535
1730 3.2961795472671267 -1.9844440015984344 11.919125464791414 191 191 193 1.2588319510391419 18 1237 22 1571 26 2203
11043 0.72879399539034717 0.19612148192882292 5.0740065716695959 117 113 101 0.7192046967105461 12 2246 15 1982
10468 0.80312056989317826 0.22586783934596674 4.8635793297795429 80 67 51 2.7089316106019607 17 3632 13 4063
8459 0.58155754580357721 1.1098913794570135 5.2298265990647055 58 64 62 0.47177880097159702 21 2737 1 4328
7377 1.0366304299808693 0.22989043470613565 4.8128133264413542 92 96 95 1.9612049660469442 22 1307 2 1952 4 2974
12091 1.1661154400264058 -0.46005371854966137 4.9404372385360897 15 15 17 1.6631884367048715 7 1564 8 2622
1917 0.884656435002111 1.7151014616224398 5.3614993200241434 32 36 39 1.7914098945021517 17 3846 22 3752 21 4134 23 4116
7362 1.3748327169624361 0.29463709731815624 4.7399467473381538 37 46 43 0.39566101267448528 22 3591 1 576
2275 0.74842430029275542 1.9572413235118007 5.4848411799229986 117 124 116 1.0544773075033373 22 1720 21 1746
12076 0.08609272554517565 0.40916840964771933 5.1108449229411095 117 119 114 0.58810433588775202 7 2443 8 2522
12071 1.045745650056795 0.89064567506495684 5.0333550037638055 158 167 164 2.4096713956624796 14 2685 8 2457
9853 1.2532186336648199 -0.5003690866090883 5.0687787564814233 206 163 154 0.17096350966404852 14 1202 12 2599
10218 1.1664233883782931 0.14707562336948368 5.2493521292103766 54 50 45 1.9433177899799103 12 682 13 1708 15 1179
5131 8.6134579661459956 -0.78133228176837632 9.0580192102680517 127 128 155 1.2474115137908202 26 866 24 779 23 749
8402 1.0476787416921627 0.18339486705535496 4.9799985910937492 5 2 0 1.8749890364572797 2 1846 1 1406
10759 0.9593831463501532 0.20436863796413887 5.1712992406174081 15 13 9 1.9075499949967369 13 166 15 274
5672 -0.040374687614576209 2.3547068022251345 4.3504881637703807 191 185 171 1.1693647018513227 26 3346 23 2289
9650 1.2445407047751227 0.0026657975062708405 5.0857179675655795 43 39 38 1.5313722806002288 17 1151 12 841
12041 0.076692358132395541 0.49227526249237485 5.1441512002489853 109 116 113 0.059479474050174751 6 1196 8 2209
7324 0.08660362308983971 0.73318486693963947 5.2412979987823753 79 83 82 1.0355804960864896 22 1677 2 1629
2237 0.93454163415036395 -0.13256756313573489 5.7303753999871185 131 123 121 2.5521371587794719 22 687 21 1459
10726 0.8838139747571403 0.90428085530288715 5.0809263212644877 18 27 24 1.7439485952418807 13 97 14 108 15 116 7 94 8 103
7662 0.33488749082883923 1.5462081245962083 6.4370852363576851 95 96 91 1.1563196354298855 5 4514 2 4470
12376 0.61473162796422509 1.9221277253106086 5.56237751486037 0 0 0 0.91980663037854105 12 2007 14 2031
7801 1.5395642125005984 0.47878443248391817 4.7637446532155598 63 74 68 1.6159960864924781 24 1546 1 73
12034 1.6063657270518339 2.175677539949707 5.4402356120153952 129 135 124 0.85705348301172557 6 3261 8 2157
7305 4.8381440056785596 -0.20339713439939597 10.175873340275437 155 180 208 1.2461352546459596 3 1670 2 1502 1 1434 4 1007
12491 1.147877351832862 1.7473489106510851 5.296297057988042 71 71 69 1.5468756060382431 16 2478 17 3730 10 2242 9 2090 16 2731
2218 7.5801569901594839 -1.1074530038461565 10.486022340403078 199 179 139 1.3646608734793544 22 1576 21 1392
12019 1.1340523575763921 -0.34695490458213363 4.7953683472697879 70 74 73 0.98616149948010656 7 1662 8 2018
1845 0.96027924724527025 1.0552708679695297 5.1044913028607208 27 40 38 1.8249280709150566 18 3087 22 2920 25 2828 19 2101
6932 0.55969202634016357 0.1910332425376858 6.0113290508366148 99 105 95 2.6228368847600811 16 674 14 720
10383 1.3257086146765165 2.0471424285848276 5.3395996360539755 199 199 197 1.0943196775808519 18 4067 13 3212
7833 4.8803336464185207 -0.17560098947839115 10.120126063194148 142 163 196 1.5575259954808089 3 358 1 264 4 241
10190 0.50150889814178079 0.49637119739956104 5.6237416723236304 10 10 2 1.5797280345504994 12 1503 13 1500
16 1.1029835549051223 1.1293397558300604 5.0904152940165632 50 66 65 1.7689052404606573 18 167 20 220 17 230 22 438 21 300 19 411 25 514 23 2008 16 153 14 210 1 346 13 293 13 2030 15 228
5103 8.9493680685222774 -5.7901430208757487 7.8651755807635393 125 139 179 1.2061057339349406 26 697 24 608 23 597
12547 1.1681246266394614 0.4132481906389468 4.6939226524453366 0 1 1 1.8211588700926846 13 4545 10 681
12006 1.2513934594325151 0.12140642372870632 5.0689588447023883 24 32 34 2.1280984780347953 7 1926 8 1915
6919 1.0994759081164514 -0.056464615768770744 4.8533904858750958 43 39 38 1.4971001621901587 18 2150 14 473
12145 1.079876377389041 0.18064205835353556 4.9794191274894422 20 24 23 2.4672393260703096 3 1696 8 981
1971 1.1223417753691969 0.20502823615243881 4.9230429229215291 174 179 172 2.1278119652285281 20 527 19 420 25 279
7058 5.9616046158298905 0.062357826060433344 9.8914863894662197 183 142 138 0.7607853099299412 3 138 1 110
9788 1.6789716099176624 1.8375398070078872 5.180718610198392 33 33 33 0.98139138840455964 26 410 12 2026
7769 1.0588319779916961 0.41739770344411797 5.1130201335419434 54 58 59 2.8997730222800691 23 2159 2 3748
2682 0.79888821846372082 0.88668286239082317 4.9537877944198412 49 68 66 0.010019094264509327 21 5 5 6
11374 1.132931608188398 2.020660568735352 5.3924644984645509 201 206 205 0.73277916152571032 18 2732 7 637
1200 0.61320017099713753 1.6926750149541965 5.4151237744481504 47 53 53 1.1606120020460977 18 4470 17 3058 16 1206
6287 1.3040735491868485 0.22968855434019012 4.7283326097500726 65 57 52 0.76633703616327598 17 2779 16 2500
12000 0.67663337412022617 1.6552155912163784 5.3999497988093585 80 89 86 0.15127194033696373 7 2132 8 1865
1826 0.62832040699786873 1.0324888111001989 5.190100830675501 215 227 226 1.2867837288568262 20 1596 22 2746 26 5076 25 3727 2 2269 1 3185
6913 1.623179738397438 0.32151976364193008 4.6605567630435436 34 29 25 2.2120765528605038 17 2286 14 347
7425 -0.018236298845839841 1.8613107283877701 5.7205322224704842 115 111 100 2.0044015641721762 3 2361 5 2489 2 2332 1 2375
12611 1.0352031702831039 1.1109295697643566 5.1050348846908165 131 133 130 1.7233199220166489 8 182 10 213 15 334 9 189 13 292 12 287
2338 0.090983038767065719 0.31682076680891513 5.088629300978079 50 50 50 1.7174939613814229 22 3545 21 2116 24 4424
9782 1.2484382863395833 2.0297915533734168 5.3515365754975681 188 188 186 0.65658797370603639 22 3741 12 1985
13025 -3.7645027165582321 -0.0099924142052758205 10.999000619251328 151 149 162 0.86627791222511685 9 112 10 121 11 136
11943 0.86783909285363092 1.9476363435627704 5.437907260608605 98 99 92 1.0884432475608996 12 1379 13 2361 8 1596
1769 0.16582051689507163 1.3814375454426637 5.6299443791351615 68 77 76 1.666985748892404 20 830 22 2122
6856 1.2206880800356374 2.0378454860326283 5.3811248954665087 209 210 205 0.43683017859955992 17 3738 14 2444 10 645
8954 1.0809855831975994 0.2204019389427288 4.7977976535409388 0 7 12 1.9992764048294394 18 621 4 1066
7863 1.2995861920767826 0.27387169771666248 4.7467767496530122 49 55 53 0.41130079637919348 20 1431 1 400
2677 3.4955826013735432 -2.7789826556703763 11.170533591589962 18 15 32 1.9203582512043904 18 2166 21 3489
12950 1.1818890137592422 -0.61378452795161986 4.6889229453827745 0 0 0 2.3923055310592538 7 55 10 65
10220 1.1399820054625565 0.15121827913191194 5.2415674609128935 172 164 161 1.3235341020089477 12 1576 13 1711 15 1314
5133 9.1355372318881383 -1.7120864872179744 8.7965553950816897 77 76 107 1.4698744571445033 26 975 24 802 23 797
2221 3.1098513008109507 -1.6487832293091051 12.299735588813631 113 112 130 0.56728650618083265 22 1373 21 1403 26 2163
12494 0.63634982930741968 -0.37374501781195196 5.1699999956793867 76 72 69 2.3254414785523165 7 1323 10 2307
7780 0.75324973721093025 1.6667967092025724 5.3715651161731088 24 29 29 2.5813732973788817 21 4195 18 2891 17 2712 3 2635 26 3978 23 3791 16 2048 2 4010 23 4132 2 4002 24 4659 1 4299 4 1919 5 4525
2594 4.3140847792639834 -2.5220016003411949 9.9016733698756454 204 205 199 1.2834532470749669 22 4014 21 3981
12867 1.0621414673204277 -0.40005776599504361 4.8845397482108703 128 124 121 0.1158538330478594 7 1311 9 1624
8862 0.50166101105289285 0.1351276292252141 4.9274915244711233 58 60 59 1.0010164772035086 20 1943 4 2868
9001 0.61544513940983059 0.07846772109494185 4.8735340788381922 41 46 49 1.9432281161003755 3 3257 6 1593
7601 0.98323972465260101 1.045849712233935 5.0986158663759662 65 74 71 0.99845512515481571 5 4549 2 3952 15 1241 14 996
2415 3.5410349334100357 -3.5646415984974746 11.680219137964363 40 40 50 0.28371591221470083 17 2929 21 2584
12688 0.8166012251132464 1.9832760879954761 5.4655000411379353 177 181 178 1.5096491939408141 16 1104 9 549
12787 1.2467047702223562 1.9731851468436483 5.3271448612564916 0 0 0 3.1484700132536423 13 2380 16 856
2514 0.80262934570488675 1.666632594687101 5.3643722114177006 15 22 21 1.8830044339063918 20 3410 21 3304 5 4584 3 3646 16 2699 1 4295 12 2914 10 2252 14 1669 9 2094
8876 1.8612482462173177 0.45000156541055775 4.9423376917205033 96 102 103 0.63659881814166419 3 444 4 2953
11457 0.69584835785288057 1.0881744874939026 5.1314876914955114 0 0 0 1.0102610595689756 12 579 13 3694
7761 1.4294130806626952 -0.29068625083119864 5.13590946869828 9 12 8 1.5368116607654461 5 1390 2 2954
12848 0.78906095647662122 0.82663683895432549 5.0551304422687586 0 0 0 0.11537059295682148 1 4913 3 2321
11339 0.41822889261884166 1.9350628333800275 5.556628725077994 196 201 198 2.1570775494871648 7 457 17 3458 14 1539
1165 0.99365299610013758 0.20067455408829146 5.1642526759441632 166 140 127 2.0239648969332622 18 3237 20 1723 22 3000 17 2784
8982 1.6738703578346403 1.9964947744613901 5.2408060286228695 215 221 219 0.82371400058245359 25 1130 4 1915
11366 0.91476998903357065 0.54308379238067028 5.0201864446011202 7 15 17 0.16151723525654321 15 1242 7 601
6279 1.0947571497037334 1.0617923612691644 5.0722708522557083 20 26 22 0.82336869311057148 25 2710 16 2422
12987 1.1204862219265093 -0.41366544247881137 4.7826840363958514 0 0 0 0.67949425490479698 7 1307 8 2391
7882 0.85370325815617143 -0.17579942604823193 4.890556103119807 42 42 42 1.8482897843075268 2 980 1 584 8 321
2795 1.1639394331849107 0.18898593898658675 4.9527668899908086 0 0 0 1.1906070769985657 17 1111 20 969
10239 1.2137097676524966 -0.33980380627181778 4.5626805298011028 141 125 112 0.055980600111585635 16 726 13 1941
65 1.668885078126535 1.1233477412129911 4.9501812132064957 12 15 18 2.3586290070413343 18 443 20 1160
8950 1.6125982828128831 0.69184900387965165 5.0325333352762573 20 26 26 0.52688123416216992 2 1674 4 931
11307 0.247227841787377 1.9212941311836946 5.604980729466674 195 204 199 0.69970786146103059 17 2521 7 236
1133 0.95297659077736152 0.46748234556115309 5.224683002188848 79 91 89 2.702659700178895 18 2906 22 2990
10213 1.4393877181805268 0.3015352214779235 4.8367909810588605 71 71 69 1.7283002141388051 13 1689 10 1042 9 802
39 1.7067360832739802 0.64928094256136359 4.773048072538927 37 41 40 1.5196866304417991 18 271 20 2808
9104 0.023320856170267884 1.1681542662440623 5.433865064789499 0 0 0 2.4201207826166398 16 2072 14 2124
11295 1.0025001883232663 1.1016200094853348 5.1106240630236917 91 101 100 0.8849152192749441 6 152 7 131 8 180 9 141
11294 0.83600873275050203 1.0162951391186221 5.1481632983021459 93 103 102 0.96559251897746923 5 202 7 126 10 102 9 97
6207 0.94863761787076883 1.0877428385375467 5.1267460511207474 141 145 144 2.1258377795993955 5 2326 26 4773 16 1769 1 2332
10210 0.27153999835425513 0.36841227587549735 5.0665558965888247 23 24 18 1.5292478553151432 23 2971 13 1662
5123 8.4372191309885789 0.6094744405232676 8.7013291218148829 227 230 239 0.87510276555107536 26 820 24 713 2 369 1 508
11833 0.74986044098874605 1.6912083940956411 5.3830807911576937 169 180 174 1.5302482884259843 7 686 16 2795 17 3837 8 818 9 488
1659 2.9966180780605036 -1.7461310672830956 12.340377820706935 30 33 52 0.82273812517563183 17 377 22 772 21 574 26 1105
6746 1.2288303447055642 0.10491557203666481 4.9973625878034333 19 19 17 0.10621440306303906 16 1934 14 1781
8935 1.2024531492084478 0.25173126632477683 4.4368412410378468 10 14 17 1.9186476955600675 3 1780 4 625
12904 0.80046589426371617 1.042960086868512 5.1450030848665298 116 118 115 1.9825251894526743 19 2238 9 1912
2730 1.6180516398255123 0.56717176865987451 4.783867383121045 59 77 77 2.1443709247528142 20 261 19 328 23 1559
9577 0.87199556322305638 -1.7170008545812958 10.608841233168771 214 174 172 1.4820943456897171 14 278 12 323
11393 1.2358870245258862 2.0266852214145348 5.3354414881255794 0 0 0 1.3618374741488612 16 1686 17 3128
1219 1.6539176664008657 1.1071492559971667 4.8846692019913132 12 17 20 1.1847773360897338 18 4030 17 3242
10182 1.6229510297364991 0.36218865980108933 4.7067865830313087 72 62 60 0.77330179957185619 12 1461 13 1426
5095 9.060866178283872 -2.6568468615104477 8.6894854176787106 60 57 90 0.97329548573933977 26 737 24 560
9046 0.45752603788357749 0.060939339697245465 4.9067605698673367 41 41 41 0.52263817488239694 21 472 6 132
11251 -0.065479553833647536 -3.1426622275491409 11.3453369448701 106 90 75 0.81942591588858193 13 3994 15 2228
11242 0.39837573886790045 1.365227428362596 5.9300508508769907 0 0 0 1.3587584877118246 16 1614 18 1354
11240 0.67876019508514907 1.9149576869179474 5.4820067803775654 108 108 106 1.0217087497631325 15 1918 8 1881 9 1470
7772 1.0120365809132845 0.2274113814075848 4.8126271930266791 36 40 39 1.7981042807742156 21 1275 2 4236 1 3780
12958 0.84132479000405302 -0.014532358290834683 4.9503805861489409 25 25 25 0.53434672712170617 7 463 9 236
2685 1.4233159362390553 1.5409130695703803 5.3794542697682539 93 107 107 1.1471578939662102 22 31 19 19
12850 0.84017435900240256 0.98276116168584082 5.1627796609142003 0 0 0 2.5443493626328264 12 2941 15 1269
7763 5.2043910283885424 -0.40592579242885829 10.32388869049303 134 129 126 1.9376269893325286 2 3016 4 2772
12949 1.2042945824491407 -0.20671731826965289 5.0965062553448597 76 77 72 2.0218318754322651 8 31 9 19
2676 1.9820031336951314 0.86454120191529293 6.5512086932106435 0 0 0 0.18726100165986706 17 898 18 3107
9523 0.99472957229083181 2.0008852520483278 5.4340742879484694 138 149 142 0.19290803046198371 18 3598 6 3043
7779 0.6358314345926922 1.0573018410962394 5.198558319695084 51 63 60 1.5540228359483934 22 1693 26 2182 14 197 18 172 20 255 17 223 22 295 19 287 26 570 25 306 24 398 23 407 16 205 8 174 7 182
2593 0.75213637275826684 0.16461360467228242 5.2383232303123686 147 153 151 2.0644708142855626 22 3139 21 3978
12866 1.0426362799353741 -0.43529842973411637 4.9142531361692026 171 167 168 0.58385601516364793 8 1999 10 2313 9 1622
10136 0.085280143194928701 0.3182687640886207 5.220599169894709 62 63 55 0.55895220842055782 12 1114 13 1078
9027 0.98801860093205962 0.97446933050799645 5.0775481016981168 86 98 96 1.1726512216392648 4 42 16 30 14 30 6 29
10676 1.0165359069510724 -0.38030093694118328 4.7667803954833596 23 20 13 0.91590278312368367 12 1214 13 2911
7210 0.93165577315158432 -0.3131482545201984 4.6795588704605846 35 29 29 1.7890931179692626 5 561 2 778
2123 6.8257066585074506 -0.95984139545162706 9.161582659567685 210 198 157 0.20715330092590811 21 840 25 739
12769 1.1243402142616303 0.82544009183118405 4.9842194499934509 69 71 68 0.62958989202399029 16 2752 17 624 9 1064
2496 2.6774985463461505 -1.18236040278682 12.925477273854863 139 144 140 1.2123885598359228 22 3917 21 3201
9567 1.0434095160303074 0.34374804093892097 4.8341028449590686 42 39 34 0.22484689861574891 16 888 13 1086
8667 0.79382871322189785 1.9835110919830068 5.4715020505548297 198 203 201 2.2662554726847732 22 3353 4 1346
7558 0.31983796161661404 0.11055770749536854 4.9523188193489869 11 10 15 0.3654343252892111 22 2363 1 492
2471 0.73894537069578226 0.790374583438469 5.078380291955459 30 42 40 1.7912860896642675 22 2950 21 2974 25 2810 5 1688 3 3055 2 3942 1 1617 4 2484
9915 0.21501426483153488 -3.0177500586154333 11.013730694708425 152 107 57 1.6251798661702463 19 315 15 148
12272 0.74404408921355247 1.9928367107690432 5.5069902335266114 176 177 172 1.2519208388618748 12 2814 10 640
2098 7.6390173476910359 -0.88695059387229847 10.934290299994538 170 141 146 1.5730265973884581 22 522 21 684
7185 4.917410044844102 -1.1753724743515823 12.932203114476465 94 89 86 2.2244261924900663 3 698 5 731 2 702
10671 0.72508816677299492 0.20745247880059745 4.8874251842061476 81 68 52 3.3312384243449191 22 2806 13 2712
11209 1.5377807182030725 0.50467837940322191 4.7685840884420472 0 2 1 1.8964328957482794 24 2850 15 1193
12831 0.81699421557065932 1.6823511134595923 5.3452265431222115 72 74 71 2.0014154273598006 8 2174 10 1843 9 1406
7744 0.23338468544614741 0.29202550383971071 5.0481842685210703 49 51 50 2.8136197772725127 22 1849 2 2323 23 3975
11208 1.3101459597824636 0.33436882650009631 4.7807247423933061 42 37 34 2.0920009385056311 12 1084 15 1148
7766 -0.21965464971233681 0.47847272837051602 4.8485412872094411 2 8 8 0.56690402967464815 5 3135 2 3345
12952 0.84401804811821068 -0.27353833958733903 4.8665828083495999 34 33 31 0.58535498291226573 7 465 9 117
2679 2.986150456680245 -3.0127566101906909 11.859405989987362 129 116 118 2.1545910256356313 22 3184 26 4187
10649 0.81615487342112258 -0.48582042661361874 4.9740503944912628 192 181 172 1.2692718770222036 12 1237 13 1952
5562 0.94692806476172475 0.33715059241073819 4.8701737040492983 77 86 85 2.184669172265413 17 697 24 3999 23 3493 1 4844
9540 1.2913011746589584 -0.083348389314667204 10.939514550104766 173 125 121 2.0311684038959124 14 339 12 61 13 51
7724 1.0999869746047899 0.25889172847272723 4.8015419510018402 69 73 72 0.39729151346680847 21 690 2 1403
2726 4.8454169863148229 -2.8991971404150254 10.244781998053069 31 27 18 0.53339760167325589 21 241 19 316
12999 0.0084257111332358466 1.5360805397643225 5.5528682800278801 98 94 91 3.0893951692214419 6 403 9 2100 10 2377
8826 0.64107947382519304 0.76668069151344931 5.0949782276978599 157 167 164 2.1217975945203551 18 4414 19 2260 4 2653
11183 0.97963612751349727 0.24865441687961248 5.0972196942650365 5 0 0 0.32923104722071284 12 336 15 590
11182 0.74470777943326705 -0.16367409285458365 5.0084327443435059 27 27 27 1.8795856372379163 12 1825 15 574
7716 2.241171196401091 0.072467166691402879 9.6996939647347258 176 173 168 1.2520696867876049 5 715 2 1004 3 678
12902 0.8214691518487035 1.0914915058697481 5.1598979230651647 129 131 128 1.2544704236856887 25 1527 9 1908
2629 1.8404377327242833 0.70395678441671083 5.072452275083541 9 10 12 2.8873675778760699 18 1971 21 620
2530 0.55594913502503529 1.064285383765855 5.2210409130194932 183 194 192 2.2601979158734298 17 3797 21 3458 3 3046 14 2112 1 4325 1 5118
12803 1.1826279658298882 0.2568672344107179 4.781670222504097 45 45 43 1.5016980631789965 18 1821 9 1264
11321 1.0565442754453318 -0.40348308604052513 4.785329129531207 38 36 40 0.34807237692391779 6 2423 9 1963
1147 0.64946228549324614 1.4082662443520997 5.6919255500089374 87 101 101 1.5641955103033618 18 1348 17 2700
2719 1.3319243495346476 -2.1708754773276184 8.9753629508690214 83 60 54 0.16313182143667493 21 144 19 237
12992 1.4370194769023894 1.9926588614787881 5.3017775732446841 71 72 68 3.008838476336595 17 1392 9 1859
10635 1.1863922591796658 0.1023287131456892 4.780585479580755 48 48 46 0.013677413858947374 12 2366 13 1556
461 1.0207275141821464 -2.5535836119130413 10.643807263050217 254 253 249 1.7441975667781418 18 205 20 268 17 192 19 253 16 185 14 182 12 258
5548 1.0053059175256904 -0.4235517048460527 4.747092783526611 17 18 20 0.6655225973142338 26 4944 24 3048 23 3145
8617 0.70810343369221806 0.33115626986481494 4.9324502855938821 6 10 11 1.6999082970376567 18 4141 20 3492 4 959
8949 1.2086073552997261 2.0293666586247867 5.3727665088045491 189 196 191 0.0019457511978555298 21 3343 4 910
10082 0.8419459669061381 0.31712877303318809 4.8481433094337048 0 0 0 1.0887477585874179 12 749 16 704
8973 0.10025018060260529 0.88452683846205071 5.8479855591865837 249 251 249 1.0027760983349963 5 1705 4 1783
8261 0.24223644283964638 1.8689468844750579 5.5818381751648598 92 91 85 2.41099120256587 22 3355 1 4377
10618 1.1139016545907183 0.24953599084217193 4.8129343821443191 0 0 0 1.7799479477694953 20 1428 22 1826
5531 0.034609091119164444 0.62058560966449794 5.263368725381607 156 154 160 0.7963721442042011 24 2017 7 2639
11159 0.8988290533178831 -0.15816283593998581 11.579456754624635 95 75 67 2.3277854959673907 12 147 13 147 15 152
7693 0.72776265020565745 -0.16073328245610291 5.0351417921200712 60 60 60 1.1997588402094592 2 240 4 47
2606 0.13568191227308157 1.8603253424605208 5.6303114821198967 31 35 34 0.37775229943199173 22 3760 21 4124
10076 1.2660120755750777 0.26248324846638571 4.7141320735987362 0 0 0 1.3569228872360113 17 1478 18 188
8608 1.6792680036361201 1.4675363275825781 5.0769474098472527 162 168 164 0.81330298586536509 2 3188 4 872
9995 1.1839726334797256 -0.50030887251826328 5.1335121995892861 20 13 11 1.4636357125855002 12 141 13 130 15 139
7714 8.4335188849272651 0.01170587038513065 8.5907762811657147 125 132 131 1.6668790078390896 26 1711 2 948
2627 0.88206859756928924 0.3232695516903194 4.8898588460419967 122 147 144 1.0511608224799529 18 94 6 922
2528 1.6863161846552646 1.1062038034095656 4.959495059449825 97 101 102 1.7553150281427388 21 3445 19 1488
12801 0.9077279165817822 0.31797732234556891 4.8750413019561574 21 22 19 0.084731299944784733 18 2386 9 1260
8962 1.2248567105602446 0.13176207137866594 4.9901176392394433 39 50 52 2.0565210158712528 3 2724 4 1548
10612 0.67382896149843619 0.22754753090248866 4.8924244997548501 79 69 57 0.93697975340061945 18 3844 20 3304
438 4.451899258653377 -2.4363647645104627 10.175647813222975 116 111 107 0.72314250124310686 20 326 17 136 19 388
5525 0.9363860371320547 0.44496539429979048 4.911882687785174 95 105 106 0.96880152638718298 17 1700 24 1520
9503 1.4450729837215959 0.32040067724042487 4.7263063576599178 3 10 17 2.5637712169218378 14 1373 6 2130
8062 0.23266482211171091 1.8569103018042104 5.5833525480280821 133 134 128 1.3032058265483093 2 1598 3 2366 5 1178 23 3174 1 2383
8925 1.4833513605646105 0.1386380885557317 4.9588578533409784 80 102 107 0.8636851533100891 5 2217 4 421
12755 0.8069317211470618 0.20612415910457252 4.8626335528705544 19 15 12 1.7259393186329199 17 195 9 962
2581 0.19396326366658598 1.0735919138507888 5.5378245187051958 4 14 15 1.1567920008391499 22 3678 21 3894
7666 1.0682981322164715 0.899202792266936 5.0322652226280384 61 67 63 1.0127118191698787 21 2921 2 4564
8914 0.93819936364413226 1.7126465523183882 5.3440544085907176 63 66 72 1.5673344048627635 18 889 20 822 17 1013 22 1757 21 1645 26 2015 18 1316 3 791 23 2221 2 1447 14 2323 1 1639 4 592 6 904 7 942 8 784
10029 0.37588947119284366 0.35572425567829236 5.3994033698181356 30 27 20 0.18152085571539631 12 1450 13 400
8920 1.0128830540313611 0.24760237303790908 4.8947780896134105 11 21 23 2.937917569161042 2 335 4 197 6 177
11111 0.67309233186693973 -3.0502533744752105 10.407307174239962 0 0 0 0.28935711664160668 13 3885 17 2769
10002 1.6365146955285337 0.62115742079751068 4.7740127564039874 0 1 0 1.5632856668122879 14 1612 16 1718 13 159
12170 0.085946819784679579 0.22334564490338388 5.0545884516494057 7 8 4 1.0381249548049691 7 539 8 1933
7083 5.6451470073235122 0.42350967438164877 9.965253703758524 175 167 144 1.2163444488592068 3 228 5 176 2 284 1 212
9952 1.0949056204726348 0.42639600947432799 4.860202174615381 62 62 60 1.6570273257806143 24 2758 12 2051 15 360
9979 1.6650962348849103 1.8887945796023065 5.9864716663663771 64 64 64 1.834403416624885 12 23 13 19
7670 0.83758870673640207 1.1135689479893078 5.168368471202931 179 185 183 0.21783414298423012 3 3986 5 4759 2 4608
2484 1.2424348696618992 0.26701812175728434 4.8866621705753737 97 101 100 1.7952106673894728 20 2431 21 3094 3 2023
12757 0.90978569777606211 0.96632550674555273 5.0920995040321904 68 70 65 0.04879924043323508 2 2237 9 999
12856 0.90717355429440427 0.87318432347409092 5.0554794352112156 68 70 67 0.84028679684821839 7 1684 9 1578
2583 0.81198952842615246 1.0592106822373699 5.14685359864351 179 191 189 0.93156442712304877 18 3701 7 1200 9 1910
10027 1.1066188715156338 1.1106096790608706 5.0860807021028736 31 32 27 1.2321536433754503 12 391 23 2060 13 389
8918 0.67355347632691631 -0.15939896635292655 4.9646866237348632 223 225 220 1.8698847163048899 5 41 7 68 3 52
10021 0.34519065938099963 1.2143556184242321 5.2097947290970774 81 81 79 0.98307652932770173 12 193 15 227
8912 0.85461453235054974 1.0752377987143524 5.1462183336043701 58 64 62 2.5002557796690561 20 3018 25 3703 18 1997 23 3397 14 1684 10 1381
8909 1.1381762477028874 1.967763168619034 5.3790506698147125 81 84 82 0.44233946609520669 20 2732 14 868 4 1860
7660 1.0125808869738839 1.1044717205791765 5.3060617787317632 70 76 72 1.0001035260346871 5 3177 2 4464
2573 0.051807283512068703 0.87677750821893952 5.4544436759304382 80 84 83 1.3548356874814349 22 4080 21 3863
10017 0.98052722526402147 0.19245235980344097 4.9052411122532691 2 2 0 0.52381822599012695 12 478 13 232
8908 0.81748128660348829 0.14968414454910009 5.7705934348873997 32 30 38 0.46041687944960269 17 1686 4 3221
7658 0.64386645952547794 0.83480908009564003 5.1059040601663748 177 185 181 0.27387897050639787 3 3995 2 4435
10015 1.1537019506558073 0.12102800009821686 5.3215324617756163 29 24 20 1.375474175157491 12 167 13 227 15 272
7656 1.0489570474966095 -0.35090649002262292 4.9326804195506773 209 216 216 2.0722058171002802 3 3884 5 3611 4 2821 2 4380
12842 1.0005130132384918 1.9953234663579167 5.459049121552515 0 0 0 1.6451741436197582 8 2191 10 1920
2569 1.2988651688365478 2.0534494215141867 5.4577026805311384 210 220 221 1.3980201693622618 22 3414 21 3842
8904 1.2524344289311427 0.24118872373032832 4.7597059849412799 24 29 32 0.99124424901708164 20 2061 22 1300 4 3176
7653 4.4681047010770083 -0.92512964528854225 11.854510346558333 65 56 51 1.3885908084963741 3 1526 2 4339
7651 2.0249960055774556 -0.17094482164696997 5.6591488102555196 72 68 69 2.6247994498536311 26 3119 2 4329
7644 0.78353921159136575 0.32015389992253068 4.9079773725715787 42 46 49 2.3917575700183185 21 626 6 1359 2 4290
2557 1.6484299769103854 0.93509935903334884 4.8070514453108499 153 154 156 0.17596145208712685 20 1610 21 3734
7643 0.8466146128062525 0.25148425167557409 4.8666795815567347 26 28 27 1.1356350719160888 22 3108 2 4284
8890 1.1875318995251574 -0.49496785447819708 5.3074498462912691 40 33 41 0.85176259886455064 5 3086 4 3063
9997 -0.054519515579917667 0.15678065794955573 5.2495482064138406 65 54 48 0.66964811393309853 12 102 13 137
9993 1.824606822501921 1.8683003640298714 5.8745361066896624 230 230 227 1.3002571277326351 12 177 13 120
7634 0.5052061409173032 0.27822216591221632 4.9656655167835027 20 24 27 1.9644820548362896 22 1168 2 4147
9991 0.74249385368516618 0.39009909360518952 4.9428713155052586 57 58 53 0.11378084521308099 24 4516 13 108
9988 1.3023441522128087 0.20863275569635556 4.7257319526906905 2 2 2 1.2946885442744887 16 1012 13 78
9984 0.65055559758562409 1.0611702714176336 5.1692616980227788 0 0 0 2.9751126635161596 12 42 14 299
7625 0.79516733482496904 1.0982798126267546 5.1575548572432366 173 179 177 0.32310370831675761 5 4507 2 4068
2538 2.2465595851999627 -1.0441489780268827 11.976522667808407 128 131 122 0.3627136434469993 22 3639 21 3497
7621 0.75225904190444537 1.1082640762798908 5.1819250116445854 77 83 80 0.69644807599201775 23 4254 2 4054
9978 1.7591146067055394 1.3079813471842974 4.8420438861100035 8 19 15 1.6497231238341372 12 22 13 13
9977 0.11738522165924241 1.7240758381542205 5.7072918172092129 71 71 69 2.1334668181624656 12 6 13 7 15 11
11225 1.1046099972283963 -0.46624127496287443 5.1485623882011362 56 51 48 2.6417384237242598 12 1221 15 1645
8868 1.6400624597511031 1.9898724333790707 5.2480324865777401 91 96 92 1.0966777246632011 20 847 4 2897
9975 3.7092203698532895 -3.2041652846501743 11.670241049179328 34 37 51 0.93435380054477402 18 204 22 385 21 412 19 313
8866 0.57721533110662626 0.15799254535644316 4.9192666344075109 0 1 7 1.2185039530942634 21 3572 4 2879
9973 0.093541477095272288 1.844003463008894 5.6158063923391977 104 108 105 2.0371916435735895 20 1172 6 1836 4 1890 16 791 23 3756
7613 -0.024088931036104651 0.10936222170572008 5.0616461734461584 68 68 68 0.59446424071770143 22 3111 2 4001
2526 1.7008583164859934 0.52173494029364487 4.8454779128966852 36 37 39 1.5793431935168307 21 3419 14 991
9970 0.87233372775134088 1.0230872709191055 5.1283050134330992 30 31 31 1.5038349123853891 19 102 25 168 12 81
9969 0.69291693465626092 0.32018464329624469 4.9352809340954664 21 18 11 2.9443315387830538 26 4283 12 2831 13 2650
7611 0.0689269892166086 0.24119304945847811 5.1370375837900326 76 78 77 2.5181047890134525 5 3475 2 3988
9968 0.72547165337244168 -0.20787768906195489 4.8994567385317609 44 35 26 0.62208321963411861 17 1963 13 2486
8859 0.80631877698622234 0.1635963323252628 4.4296938450183427 43 47 50 2.371737371779413 3 2472 4 2852
7608 -0.0085029801484152717 0.10373720672359636 5.0541885961860196 26 26 26 0.98424666277965955 22 2495 2 3968
2521 1.1455982106920235 2.0146696787280751 5.3360630282502441 206 214 218 0.91316196336556144 22 3416 21 3345
9965 0.70697461054841815 0.38289997994548503 5.0556065459646087 0 0 0 1.1949883992439596 3 3345 24 2757
7602 1.0472561140898096 1.0749656819460083 5.0919519274250469 172 181 178 1.0766692290255928 5 4547 2 3955 1 4788
2416 6.8551228463871343 -2.1361473532130657 8.8784887602222096 251 242 210 1.2118144370076027 22 3010 21 2602 25 2086
12689 0.75851666716996002 1.9854059763251248 5.4889641848093591 178 179 176 1.1192286106246039 18 4022 9 550
2515 1.7181332181605584 2.4643020718763347 8.4072163628991827 104 112 111 2.8260342900789661 22 1717 21 3306
9959 1.304605206337567 0.28200973428674536 4.7389683551597832 60 55 51 3.0579729026196851 16 1400 12 2280
7598 0.95107706594785701 0.82241035631050252 5.0374768712300853 53 59 57 1.251326031586308 26 4620 10 1998 4 2908 11 624
12784 0.48873932689991134 1.8917748800393022 5.5283232978324159 0 0 0 1.2127465500917982 14 811 15 1456 16 843 9 1161
2511 1.3978967729562883 2.0521996268803826 5.3286120586426167 201 212 215 0.32446844962096782 22 2734 4 901
7593 0.76044881151652066 -0.46684606722547406 4.9650348527496266 16 10 12 1.7700792666467233 3 3886 2 3907 1 3734
12779 1.5137827277301561 0.22772938728017236 4.682739879994708 26 27 29 1.5379088513880048 16 1056 9 1112
2506 1.4238373019402173 2.0658535314353492 5.6093689415236732 114 117 116 2.8079394123740054 22 3200 21 3270
9950 0.088823853117880866 1.8552939952404182 5.6412526218768226 62 61 56 1.4913189987704172 14 1959 12 1882 13 2458
8835 0.8069716755479811 -0.39366748063990042 4.7918810051867098 3 2 7 1.2678010247965756 1 3943 4 2707
7586 0.79333468897240633 -0.071889077612675475 5.0572197971855166 50 52 51 0.61797439436657187 5 1512 2 3866
2499 3.1717597575524632 -1.9005645068941976 12.279821271350714 171 176 180 1.7257864729982528 17 3716 21 3236
9939 1.3401188352907083 0.43759084796943509 4.8019143730117344 39 39 37 0.0039581650527356045 23 2799 12 1424
7579 0.87762250349023729 -0.50481905800440929 4.9818110204001576 58 56 56 1.9260656298567285 3 3548 2 3817 5 3797 1 1922
9936 0.69969949344398608 -0.1813290706691818 5.15704517193908 0 0 0 2.1340337527996147 17 1094 18 2661
9931 1.417476260389571 1.0730402431218726 6.3844484752995356 58 57 54 2.3449067292183523 14 976 12 898
8822 1.3085206131350153 0.3999811461117142 4.7848179687560668 106 116 118 1.1885529747121144 21 1782 4 2615
9930 1.6430447634982206 2.077180183667608 5.4530047501672971 60 60 60 0.38563811475050208 18 1421 12 897
7568 0.82456731197990918 0.27935097200303804 4.8793527573159539 20 24 25 1.3109508415907556 17 700 2 3749
2481 1.2190052361525581 0.34664595310949547 4.8020471669192313 49 58 56 1.8974344060841097 20 1850 21 3076 2 1244
9925 1.6648850183199588 1.3011851643027772 5.0799105432593263 47 49 48 0.56454849744620117 18 1350 12 602
9922 0.8623834803225684 -0.35033553476658513 4.7186796471715757 46 40 34 0.061641395094748919 14 498 13 500
7554 0.10750833782158813 0.093326052465886572 5.343188322512864 3 4 8 1.856756860301239 3 2932 2 3507 1 3586
9911 0.87941169295744082 1.6973284263948085 5.3520256233017998 111 121 114 1.4999323811455672 20 1456 16 1215 14 1127 12 1880 13 1373 15 1472 7 688 8 821 10 562 9 559 2 3385 6 893
7536 0.9197023703669458 1.9367733610127833 5.4212503170763151 72 74 72 0.85922090164464893 22 2042 2 3298 4 1887
9893 0.57699589058945955 0.19905476700088659 4.9229101968746356 105 96 83 1.7356123847080576 16 371 12 2822 13 79 12 118
7529 0.26687138396791799 0.27138178522849848 5.0259283150241902 52 53 55 1.395498642726638 20 1361 22 1862 2 3258
7525 0.32925885596364907 0.25039058886081905 5.0132651931965757 44 45 47 1.2317992709420869 21 1904 2 3243 1 3227
12711 0.82903982688239353 0.1802499217795504 4.9400288958808716 15 14 9 1.2030613584539713 8 1260 11 440
2438 0.93991171983519439 2.0000870383425537 5.4363122086046785 223 233 234 0.79905929858025604 21 2781 4 877
9866 0.6819133249515712 -1.9923702665783116 8.9972681540344901 127 100 97 2.5123736300993151 14 2312 12 2677 15 2595
7508 0.94890028342929322 -0.42321753570341231 4.8584712148757321 89 85 86 0.74788188043840209 2 3114 1 4019 4 2266
7507 1.0530476645505709 -0.3617668013186543 4.8289414573023528 3 4 2 2.7472166846410637 2 3106 1 4009
12693 0.70842810164322068 0.85721826413949653 5.1138535609266773 0 0 0 1.1688855807935625 7 926 13 2084
2420 6.8466448352553924 -0.71591084308499975 9.3847756625178178 158 132 135 1.7643653073242322 22 1405 21 2660 26 4264
9864 0.2600665287750073 -3.0646750588197684 10.898904379453722 140 97 64 1.2263128950884914 17 2028 13 4793
9850 1.4054290297161405 0.61105921765150895 4.9318641073940652 38 43 40 0.54602165609222786 12 2572 10 285
7481 2.3113063951699178 -0.014890495654590618 4.4410612379647993 143 144 128 0.32998276956888423 5 2070 2 2925
9834 1.8101365685868134 1.9107880929692234 5.7382141565650722 86 88 87 0.32661311265954041 14 1513 12 2440
9828 1.0758348061580763 1.7334979103973258 5.3637930387081267 0 0 0 1.4082518965584345 1 3949 3 3919 5 4238
7469 0.95222712548666 0.27167411679990816 5.0532914916118559 121 112 107 2.3023346267276135 3 3721 2 2826 1 2800
9826 1.2523369160626878 -0.43522516718163479 5.00106181509579 19 9 10 3.7929280633047204 14 2266 12 2371
12174 1.0688342765572836 -0.43006683430803833 4.7147783032727455 17 18 13 0.77579117442841228 7 1645 8 2002
2000 4.7937574581319842 -3.8956860395525781 11.981293572370012 45 40 36 1.374865320754056 22 25 21 27
7087 8.7181914567608025 0.38230779491821126 8.3369191217252929 177 177 185 0.19412448989252037 23 456 2 297
9817 1.2875458036223701 0.30270222290224491 4.7616461931693532 37 32 28 0.76048824864473841 16 1052 13 1673
9815 1.326064077225618 0.24081425485148103 4.7255231333278171 148 143 132 2.2320659847938447 16 455 12 2292 13 714
7447 0.27289917541355957 -0.062842564945896989 5.3494917856065269 12 12 12 1.6447012033545896 3 1994 2 2614
12633 0.84959265879823465 0.19137466214057083 5.0116168029543458 39 39 37 3.1721175914365887 8 568 9 291
2360 6.8401511986033352 -0.7637274875233957 9.3215811771919324 149 127 115 2.306941635591766 22 2181 21 2200 25 1669
9804 1.6471900947553832 0.4460411869967299 4.7192772110828942 0 1 0 2.0116539728566796 26 3328 12 2212
9791 1.6660405144961528 0.4277861444324681 4.6870638844925585 33 32 30 1.4937612654557173 16 116 12 2062
9789 0.99941430646614715 1.9543720499859196 5.4069871106814684 112 113 107 1.4446231983324664 16 1770 12 2033 13 3192 9 1487
9786 1.3344255302528851 1.9915396520556969 5.3283139246110416 120 121 116 1.9119525176306749 16 1080 12 2017 8 1713 9 1447 10 1403
12142 0.77230057001910624 0.53095695820392885 4.9997922512949309 0 0 0 2.1096239537567043 15 1257 18 1594
