# 3D point list with one line of data per point:
#   POINT3D_ID, X, Y, Z, R, G, B, ERROR, TRACK[] as (IMAGE_ID, POINT2D_IDX)
# Number of points: 428, mean track length: 3.3064275037369208
1004 -2.8314136985687455 -3.0528826252350867 20.669946413864242 220 221 216 2.1814416573583117 4 2669 3 2147
465 -1.8230633537418244 0.28355411391642532 10.288997690901367 47 37 35 0.99689141734187658 2 2954 5 1390
1006 -1.9865205505171726 0.76178178277361352 10.883606383522128 0 0 0 1.5875800227525387 4 1721 5 1624
466 -4.2292111002153865 -1.5257825461257395 20.292500931388265 197 199 188 2.0140229183505274 2 1107 5 1396 3 1561 1 1648
1007 -3.6980168377602167 3.2648371542635632 10.643895197918066 161 163 160 0.042012167585808287 4 2798 3 2275
467 -1.6874291051193975 1.3963245922509606 9.8882530855799544 2 7 10 0.5904832849784255 4 1565 5 1405 3 1249
1576 -1.8834773269018052 4.3818138789752954 11.388443662279 189 197 197 0.095640479703873904 4 3113 7 643
1008 -1.459009361458776 2.7079936732677523 10.543123513896388 63 72 69 0.70231360620658179 4 1287 3 2356
1010 -2.5459711533572014 0.22653788109580497 9.6350280650515856 49 46 41 0.61932266901395128 4 3060 1 1673
1011 -4.0415536467384934 -3.5304546821663028 20.936981200216952 0 0 0 0.17336799659215424 4 2663 5 4395
471 -2.6669555525855233 1.3893944993936482 9.7407543987890826 72 75 74 1.5537281525085243 5 1558 3 1237 6 272
1580 -2.1661714653017339 3.0252027887190156 10.325900794222399 81 91 90 1.5097276210461166 4 1233 7 699 8 1821
1012 -1.4786608489105362 2.9024773709935103 10.759371884382411 64 73 70 0.002464992510818954 2 4037 3 3023
472 -1.6059583063037974 1.3028419899208996 10.191860305462276 19 18 23 1.3897270585042174 4 685 5 1560 3 1926
1013 -1.1420609071564134 1.8946026772592335 5.119216459666613 66 77 73 0.72575718529349009 5 2348 3 3058
1015 -1.5951928621402132 0.68135624400145478 6.5315831981572074 79 76 79 0.33837574746759486 5 3612 3 3557
1016 -0.55089592111981622 1.4375496767142217 10.527033583337392 98 105 105 0.064504859423259439 5 4688 6 1232
1020 -0.97811240513285647 1.6079252509792668 3.0138064160834266 172 178 174 1.6892515261880907 5 3966 3 4005
480 -1.572365537283722 3.8386926306653781 11.310549869230851 177 185 182 1.533898189442241 2 2395 4 1252 5 1637 3 1605 1 2309 6 867 7 932
1021 -2.8036985037057622 7.0183119868948944 24.912857209168134 47 44 39 3.0441640360295841 4 7 1 4
1022 -2.1304212459494263 2.4638141348790237 8.7001991680152919 87 93 89 0.01195864177247339 3 37 1 8
484 -1.4016993506852518 3.7528035970998603 11.386988016733083 56 59 58 1.4478201429289723 2 2404 4 831 5 1646 3 1649 1 1592 6 906 8 1058
1593 -0.86526547527694597 1.1423529470562992 10.120146577368647 65 66 68 1.1001533422486069 3 1430 7 993
1025 2.2266627084148132 -0.28665239519444713 17.294371363128683 229 230 222 1.006556403294018 2 28 1 31
1026 1.9040364202271143 -2.4659764894750666 19.168891175167325 230 230 228 1.7169246733039207 2 33 1 37
1027 -0.0040585882408270954 -3.3723727266806409 22.639413791783337 219 218 214 1.3979273969268562 2 42 1 43
487 -1.3124868479185334 3.7229339111233912 11.437481255401362 61 67 65 1.2336304295808738 2 2317 4 1246 5 1650 3 1654 1 2603 6 1286 8 1595
1028 -2.201265610840009 0.42524705311870559 9.3714413796294256 47 47 47 2.6537457610247452 2 44 3 39 1 45
488 -1.4371215766445873 3.723596546987848 11.350320555130995 60 63 63 0.8896644085286507 2 2409 5 1651 7 933
1029 -1.3096152406512092 0.85474735978066674 10.178507135577021 55 51 48 0.36517935517797501 4 41 1 47
1031 -1.4114113429653776 0.53496725822736912 6.1348694565826039 7 3 4 2.384183286600015 5 2066 1 61
1032 -2.0679865419357322 0.80383477374352152 9.1316696430963873 8 8 8 0.48219196719551272 5 256 1 71
1546 -0.32741670831275549 -0.87356200343705526 8.1401212571492021 244 243 239 2.4779881513485562 6 19 7 35
437 -1.2933619232592219 3.6961248671025211 11.443468271698467 52 56 55 1.4134604738816383 2 3335 5 1151 3 1656 1 2278 4 1893 6 1280 7 1186 8 1061
1033 -0.73488263710441193 1.4552391065324073 10.682228638638094 63 74 68 1.3517499151193557 3 130 1 73
493 -1.6411474203905327 3.8747191162368901 11.274401099575545 64 68 66 1.6242370373390411 2 3384 4 773 5 1665 3 2430 1 4293 6 878 8 785
1034 -2.4262649282052906 1.7424222160414393 9.2640824547588121 1 2 4 1.1227810860384047 2 97 6 484
1035 -3.4661275704898964 1.8254577775457403 9.9751638267042146 62 74 74 2.6210730908765765 3 79 1 75
495 -3.0725691695103947 2.1751263476210156 9.3492847759423228 86 93 91 1.0430129774017991 4 2002 5 1671 3 3306 2 3255
1036 3.6777832557871011 -4.5092080853000143 22.151746383052249 116 96 94 0.37940081387879021 2 96 1 81
1038 -2.3159129562547034 1.6246749118354016 10.093957343105181 41 37 36 0.32828712912001545 2 108 1 101
1039 -4.5809134157527582 -1.4782571332064207 19.712477708299236 225 225 225 1.853940353371339 5 160 1 105
499 -2.0146174034783213 2.6099442398617065 10.176363711522924 60 69 66 1.3753195759332346 4 1278 5 1685 3 3094 1 1615 6 820 7 571 8 1204
1040 -5.9230081818393865 -1.4940055750228458 20.638418858827222 143 140 123 0.85598443154874548 2 194 1 150
500 -2.1632135424919725 2.6090772028780931 10.054669380180325 168 177 172 0.88711095645828941 2 3206 5 1686
1041 -6.0742989165368257 -1.4705513124707341 20.119456483849341 189 185 174 0.49633488243523399 4 118 1 151
1042 1.6472085031380226 -1.0153208432938738 18.79542086305543 146 82 67 0.53489208767702801 2 211 1 162
503 -2.0656817687564737 3.9904422313590775 11.017028724245739 193 205 201 0.89699789817038023 2 2410 5 1699 3 1594 6 852 7 956 8 1106
1612 -1.3813509190155422 0.66616293745826172 9.0754472395319965 40 41 43 0.55810981405668714 6 50 7 1621
1044 -1.7334469723325303 2.8042935669209612 10.564387930110518 82 88 86 1.5585836098381893 4 178 1 177 6 150
1045 -1.9706160390517482 0.26711056864544475 13.055253187449061 57 49 47 1.8545855483277442 2 241 1 178
505 -1.5253038680035613 3.7783802529704218 11.309723536459195 185 194 191 0.80139329987754493 2 1638 4 832 5 1708 3 1645 1 1638 6 895 8 1650
1614 -0.69446651258170222 1.4672290107757366 10.623436812757774 14 19 22 2.7714156992670063 4 964 7 1675
1046 0.79421920737626517 -4.52186713649529 22.556550981823353 165 163 168 2.0601757972635553 3 152 1 185 5 141
1047 -0.72968524599249107 -3.3812238243590347 22.873464591009071 122 102 99 1.7657285258432787 2 489 3 192 1 210
954 -1.2479750575293456 3.7216748907255539 11.476281816317147 64 68 67 1.4516855619982496 4 2108 5 4240 3 3650 1 4813 8 2633
540 0.28111058142881717 0.076008941191012994 10.509333779714616 205 206 201 0.068064363929396215 2 2925 5 2070
1081 -0.4376063257355669 0.97273866956712873 11.89232263698762 13 10 7 2.7775563096168217 2 3082 1 775
824 -2.3809872180716489 0.31618807310823904 9.4645207517501362 97 97 97 2.6918971856506895 2 1514 5 969 3 987 1 1503
955 -1.2913301524342284 3.7436274925416408 11.471752311899859 50 54 53 0.46653872866915852 4 1926 3 3651 1 4336
1623 -3.20874775564912 2.785719193244538 9.4460045344973267 128 136 128 0.33475595523681423 6 1197 8 2442
514 -2.0825654715374524 1.7822365368959763 10.202593618601673 48 54 50 1.2511844614019152 4 1992 3 1783
1082 -0.76122087934167193 1.1063387989099525 10.139803630446529 98 99 94 2.6124506738867579 2 722 1 778
956 -1.5982833007798611 3.8679316523524996 11.303501026529382 55 60 58 1.1434632031804048 4 2894 3 3658 6 2592 8 2182
1083 -6.3988570924563861 -0.71454462921599393 19.415348943729359 197 199 198 1.027608612803431 1 789 6 287
826 -2.1433227095728689 0.12158985394478458 9.9421226008748231 20 12 19 1.7583637809201997 4 734 3 1045
1084 -2.7322188871930764 1.2961677669395548 10.140416736621384 3 1 2 2.0310000784272231 2 1015 1 804
827 0.85303705871706526 -4.592339660635246 22.578233286878344 178 178 179 1.4556356402069339 2 1068 3 1050 1 1201
1085 0.61333452292217105 -3.8670016401257761 22.9355922675493 140 138 141 0.96334833105683471 3 910 5 1095 1 860
287 -2.9401395939202857 -2.9975854450620276 20.563877197861625 219 218 214 1.9699998548769577 4 326 1 529
1396 -1.8776525572959324 0.43905490592930307 8.8583623134739931 8 6 12 2.6448591597495579 5 3096 6 1644
828 -3.0123651626510912 2.1859090274775057 9.0635114312616789 57 60 61 1.6656893119095404 3 1134 6 2533
1500 -1.3390261334935858 1.2497408819425804 8.8238872527868324 0 0 0 0.12000547887595947 4 45 5 2846
391 -7.8704244416341034 -4.3428974472249884 23.642729641005463 69 60 55 1.0632366679449652 2 574 5 748 3 523
959 -0.56441790996783292 1.5339251558813873 10.594702746924922 103 105 104 1.3124551792590717 4 2437 3 3683
1086 -1.1074778378120858 -3.9430336649512272 23.870210185087579 101 83 69 1.8665671732854303 3 915 5 676 1 912
288 -3.8114614921953711 -3.013411986976922 20.553646576589141 85 108 124 0.72220921472039412 2 274 4 171 5 269 3 265 1 219
1397 -2.092406195172944 0.47426954448915321 8.7096793083445867 73 67 69 1.5544111539590091 5 1967 6 1652
829 -0.35153537973784882 2.6360618032619758 13.929622795553311 194 193 188 0.75039489206486609 4 975 5 1152 3 1150
1501 -0.56671894339400253 1.1887115553739767 10.314489822521113 69 70 74 2.5940917555858478 5 3724 6 583
392 -7.725855978723521 -4.307098065862216 23.8409485239223 78 73 69 0.7546638654871759 2 785 5 755 3 641
960 -3.7523203508193781 1.7921023525430069 9.7115611877563364 64 63 61 1.455541001513426 2 3418 3 3691 1 1136
1087 -4.1068257031498447 -3.2848014646156662 21.612871137492338 147 172 204 0.86858499433816361 4 325 1 921
447 -1.6820760800305956 3.8448695129692143 11.223285156918127 184 197 190 2.0400287029670308 2 1642 4 837 5 1213 3 1604 1 1630 6 893 7 688 2 3385 8 821
1088 -2.2970202441712457 2.2051325098836578 9.6693505894723675 20 20 18 2.8885948259695398 2 1616 1 931 6 970
831 -1.8446005149614515 3.9176543282572749 11.135558000785556 182 193 184 0.62688664224585444 2 1646 3 1181 1 1622
963 -2.3717561765464485 0.38143939317733555 9.3615948656276675 161 162 159 0.71283865868736929 4 3096 5 4771 3 3845
1090 -2.9963682228425417 2.4811758804078528 9.5954039158157673 13 15 14 1.7902929376254271 3 1166 1 998
833 -3.076668427631716 2.4947419478873534 9.5150777011510304 0 0 0 1.2578769472407629 2 3210 5 3463
966 -1.5157084829658836 3.83359311329348 11.347754001589687 72 76 77 1.666861898471397 4 3158 3 3916 6 2590 8 2184
1093 -0.78032084983464323 1.5055787613917266 10.925915999839342 25 24 20 0.78480225447942353 5 3394 1 1042
967 -0.52077657313180215 1.7789355352147045 10.367301581031262 0 0 0 2.2182051019765829 4 990 5 4726
1635 -1.6943482619332395 3.8617072855876891 11.202679815465498 148 157 156 1.4711461510419845 4 1920 7 2134 8 2176
526 -2.0977706736024575 0.41495539338615983 9.4370915971257165 203 204 206 0.39807218510630582 4 1655 5 1968 3 2840
1094 -0.58807959498834905 1.7135802452761366 10.821503676069032 98 100 97 1.7708505494543285 4 3190 1 1044
1637 -0.77927062757213406 1.5501766104244417 10.685944353307892 11 21 23 0.030460458440575627 7 2156 8 1812
1096 -0.60202255278264349 1.9619328583939253 11.319668938820989 89 91 88 0.08452704150160871 3 2629 1 1067
1638 -4.534826025791074 4.0480206542707764 15.095942867639097 91 103 101 2.016369961085279 5 862 7 2161
529 -2.1577315362455138 0.49622417681993525 9.3049234930035691 64 63 61 1.9863199126140061 4 1647 5 1982 3 2230 6 1648
1097 -2.1687457634605218 1.6652214925653521 10.094001247529103 47 49 48 0.0089022115906502233 2 1933 1 1178
840 -1.7123881577581048 0.44388710816500482 9.485022574628772 29 18 22 1.8500615743363855 2 751 5 1981 3 1467
1091 -2.1649285883183795 1.5740469830554829 10.410479726469482 27 28 30 1.5401474661957206 2 1706 1 1016
293 -3.3622440473439528 -3.5379603793020875 21.298831528685817 137 165 201 0.84236832554794161 4 233 5 280 3 288 1 323
1402 -2.0346829600796097 1.9413329756842226 9.7062194441097436 18 24 24 2.1771855951260926 4 2384 5 1797 6 1854 7 2231
834 -1.8159757477025849 2.7356035444162088 10.396872989749784 71 80 77 1.7760137238370537 2 1209 5 1130 3 1213 1 2316 6 539
518 -1.9976503856236554 2.6418960632902939 10.19938523962726 72 82 79 1.5479388960671097 4 1782 5 1871 3 2318 6 3063
1059 -4.5971527539236687 -1.361833051216693 19.992380393277198 188 189 183 0.46426274083284458 2 474 1 341
1236 2.0718534763716585 -2.3569569323634321 20.045127782538998 94 96 94 1.5112441308961233 2 4322 1 4677
1106 -1.9680624173208419 1.5792482245925825 9.5357491084217241 209 204 193 1.2469524959709584 2 1984 1 1373 6 2642
965 -2.5379348103917194 0.58032641976210775 9.214737769059683 12 15 16 1.2250644274554585 2 3907 3 3886 1 3734
1092 -2.096767710228387 1.6647760086903716 9.9809024123006669 40 42 41 0.99447120486048357 3 1298 5 1313 1 1028
453 -2.0612354269299731 4.0255109654934111 11.038108710642454 181 196 189 0.70809543380293227 2 1651 5 1222 3 1190 1 1629
994 -2.8214721195936812 1.5554758257796097 10.05399030332584 72 91 88 1.6979098548055693 2 1699 3 1297
1121 -1.8858263781059521 3.9216232860324851 11.098712192499999 191 197 193 2.1996539916004796 3 1182 1 1619 6 1275 5 1204
864 -0.69453424191157498 1.4416218527683333 10.573834436547468 59 70 71 2.175193079998023 2 1794 3 2022 1 2133
971 -3.2239829291302367 -2.115805848314583 20.903460990949448 200 200 188 1.4840060422215806 3 14 1 14 5 16
1639 -2.1654493834629971 1.8401981572456356 9.6023414892579897 56 57 59 0.79381662460364821 2 2473 7 2185
530 -1.7742378751054138 0.79536219031012123 9.292541636048151 64 56 53 0.55238371319500734 4 1175 5 1985 3 3540 6 1777
1098 -2.2084110443217724 2.1721559942955375 9.7249541805288757 25 26 23 1.9409742628329318 1 1210 6 1239
300 -2.4045097573717498 0.42307730863435605 9.3808207480685297 240 249 248 1.5045906112762764 2 356 4 285 5 296 3 322 1 249 6 183 7 231 8 224
1409 -0.56699606794610402 1.6121498832784047 10.632705592642838 44 48 49 1.5279667390423466 3 3758 5 1839 6 1956
841 -1.8337603457244942 0.56363962067306717 9.1998936563630487 62 57 59 1.3751594761236163 2 2185 3 1511 1 1478
1107 -2.718859463436726 1.3630048223209206 10.068413867029392 113 111 112 2.4875642291609461 2 1406 1 1410
1391 -1.3790977224260677 4.1964480867022846 11.706540336909201 196 208 207 0.1435551609762224 5 1750 6 1542
282 0.27927852304935302 -5.0367835171643458 22.582239454373173 106 91 97 0.93784079237034179 2 429 5 253 3 391
850 -0.93235460408962123 0.84795724324469846 10.890142015446246 77 79 78 0.83748677517729297 3 1686 1 3755
507 -1.7051757022832579 4.1132944739699377 11.339927479054273 98 102 101 1.398907479560251 4 1861 5 1754 2 3319 3 2443 1 3387
1048 -2.0334842451626307 3.0848696489765333 10.449038703859721 81 87 83 0.8102756489012849 4 181 1 231 7 130
982 1.2279769317319671 -1.768015757276032 19.754415608227383 212 212 210 1.9502880342698314 2 86 1 68
1109 -2.9136221486045848 -3.3934521610685664 21.147135369699797 220 209 206 0.8422323867097552 3 1580 1 1462
852 -0.76081114783403581 1.5382532753283489 10.575540563185797 64 68 62 1.6153117742569636 2 1696 5 581 1 1047
1050 -1.758218871393177 2.9389558159611915 10.582038542787648 82 88 86 0.66169518909683334 4 188 1 236 8 188
1009 -3.1584401671848972 2.2767908005018054 9.1340856400698307 26 25 30 1.2023330640277439 4 1424 3 2586
1136 -1.7196545218652322 1.6779680708592217 10.029614353360913 154 164 161 0.291055271070641 2 1277 1 2029
879 -2.094371792313658 2.9737995098318337 10.340630237748149 61 70 67 1.2823254590373625 4 850 3 2283 1 4455 6 1210 7 892 8 1185
536 -3.6654410789452792 -3.7042029219326595 21.533962031549056 116 111 108 1.510734833815524 2 3016 5 2047
1645 -0.71171076415699053 1.4985683849772475 10.641543921322759 0 0 0 1.6869087452958524 4 985 2 1953 7 2410
1077 -3.1556302671463321 2.5615689366152004 8.5194564526445991 14 23 22 0.12664654548368856 5 1174 1 694
279 -1.1094460938865676 0.71243121592718595 11.243517241823708 47 47 39 0.21189823437701738 5 221 1 762
1388 -1.5091583615835631 1.2825512017160383 9.6885818504304506 28 35 42 1.3865633692152681 2 1017 5 3670 6 1417
820 -4.941822351273605 -0.9701580584067574 19.128494821440974 227 230 227 1.9795368782702349 2 761 5 964 3 912
977 -5.3436614464851377 -1.5534431875968457 12.560150301442969 8 10 35 2.2699756327589551 2 13 3 47
1104 -0.64460893927008089 1.1131343442583752 10.830225336356071 95 96 91 2.6648659821934508 2 2763 1 1314
847 -3.8030869392072839 -2.951481324681867 20.579933472575398 158 183 214 0.88018899858001121 2 1502 4 1007 3 1670 1 1434
1103 -3.7092683137492228 1.8461352573020353 9.876557191229276 94 94 93 0.41555402617340775 2 4078 1 1283
975 -2.2671019288679179 2.0908728602113418 10.291910267106832 10 14 15 2.4154833548585213 2 29 3 34
1102 -3.1904501135640739 2.282113165335915 9.1036364533415455 60 62 61 0.63773796140037531 5 802 1 1244
1386 -2.961597598497288 2.1200936688006884 9.0671646879714576 23 33 32 0.005266899841284263 5 804 6 1390
277 -1.3968424967798636 2.7837379340602841 10.755957056240655 81 90 87 1.7447912374854173 2 322 5 203 3 239 1 237 6 151
845 -3.1170041228786096 2.7413691290582012 9.4143233749152913 63 67 68 1.5826413048076791 5 1127 3 1626 1 3196
1101 -3.1374831514697181 2.3942742198851774 9.2016508286029293 1 2 4 1.2913147581736784 4 3189 1 1235
1385 -0.84936174890405869 1.3514866404180808 10.230467115245315 45 49 48 2.648736354918106 5 587 6 1374
844 -1.5718857211781869 3.7920722781147345 11.279348376716715 189 195 193 0.77613677676729764 4 834 5 1643 3 1617 6 892 7 973 8 782
1100 -2.0018974278031765 2.1161302426569848 10.243617602290159 50 50 48 1.2919364878045525 1 1227 6 3260
1384 -2.199740431606517 1.7021256300426082 9.4031000598597139 13 13 21 0.013467697489701488 5 1831 6 1351
275 0.36096027118571361 -4.0052353711091158 23.088894825952224 127 121 130 0.69533974614759508 2 334 5 192 3 199 1 235
843 -2.4090586308891049 0.64299286396186672 9.1146908645822098 29 30 35 0.67711697239874802 2 1484 5 2009 3 1517
1099 -2.9725507128478306 2.1430830729714954 9.5302717773443195 28 30 29 1.7207955590933912 2 3221 5 1300 1 1213
842 -1.9048200155268247 0.58216322121876796 9.1797653443283416 30 24 26 2.3037781504893946 3 1516 6 1794
539 -5.3285134471684481 -3.0263607812131905 19.341650780718123 209 207 198 1.4628459426608948 2 3012 5 2057 3 2150 4 1088
1621 -1.5516255400299537 3.8136362795376026 11.309534102764516 148 158 158 0.44308698500408195 3 2299 7 1775 5 2560
512 -1.9193198023091955 3.9668486299264072 11.118378167595369 50 58 53 0.71032515203977875 2 2428 5 1791 1 2402
1080 -1.0507640442854611 0.90911462423716793 10.947150828749034 51 52 47 1.2510815940456155 5 1016 1 758 3 854
1364 -1.0045639159672264 1.0524392088041701 9.9045506806878105 77 85 88 1.4409656025263415 5 111 6 1079
823 -2.3794931226609357 0.69288134090453235 9.0908273978594707 3 3 7 1.0514042604202374 2 1493 5 690 3 960
952 -2.0032028738221244 2.6669059762382328 10.206978289393726 68 77 74 1.7066893770502019 4 1814 3 3571 7 1280
979 -2.4832525146167832 1.2137445012821839 8.3806325115519051 227 228 223 0.13178704616033798 2 355 3 53
438 -1.291671455927756 3.7223940604828667 11.459196611128283 179 190 186 0.88601167401103109 2 1634 4 594 5 1165 3 1225 1 1593 6 623 7 646 8 781
1620 -1.7099754286410975 3.8415576402970641 11.207603389959175 152 160 162 1.6471379378557813 1 3348 7 1769 8 1660
1079 -1.4624349810830202 -3.4612468073113671 22.451492459518022 241 209 202 1.4455866285713039 3 550 5 341 1 747
1363 -1.7792458706372856 1.3807088864145163 9.5896543892927522 77 77 77 2.2096473356696347 4 1615 8 2489
822 -2.2027452625181487 -2.2255146989167516 21.391474474713494 251 255 249 1.2700853553760425 4 388 5 667 3 927
951 -2.4311776247316357 0.4226621529964486 9.3245616832753644 87 87 87 0.48403848453354009 2 3817 5 3797 3 3548
978 -2.4672828240021767 1.1430549093141453 9.311460466110125 228 230 227 1.1020309333848108 5 41 7 68
537 -5.7576433715556794 -2.9691729718946127 19.139831698678798 161 154 143 1.8524471841571251 5 2054 1 1761
1078 -0.65862589001571348 1.931592065022703 11.092570519140908 25 24 20 1.5117244551750226 4 1377 1 730
821 0.61588297553475035 -3.7133924375029759 23.122165674616546 142 143 146 0.76506679412460799 2 1101 3 919 1 919
949 -2.3183611819625534 0.60616021891976823 9.1399442733048861 72 67 69 0.84232023401964429 4 2351 3 3522
535 -1.9480591957584383 0.68198800538897497 9.4373361752747407 43 43 41 1.511725388465651 4 1762 5 2019
1076 -3.1097752651588539 2.2043649929081077 9.3377693704476119 25 27 26 1.8464861749985289 3 410 5 407 1 658
534 -2.4779862975260722 0.72759318447411325 9.1040053217688293 86 85 83 1.1318909034384792 4 556 5 2017 3 662
1075 -1.4455656820571339 -3.1610103232013027 22.658599296445924 194 157 147 0.5404115149426244 5 363 1 627 3 451
818 -2.4300439747962868 1.0410317959622328 9.4627198865920903 0 4 7 1.7682833954978969 4 301 1 52
533 -2.0220170051346429 0.57882645455550508 9.9481648332927861 36 34 37 0.14159552201378856 2 2172 5 2011
1074 2.7478103657930517 -4.4217338880186059 22.01829140710473 102 102 135 0.73123211675878919 2 698 1 613
817 -2.4102349914246424 1.644066817739267 9.8112790702060568 33 33 37 1.6704871209979297 2 824 3 852 1 709
532 -2.0802075788148069 0.55421432362607448 9.5370935591350889 32 31 35 0.34863821110377302 4 1198 5 2006
1073 0.49123810801615947 -4.3793986857516769 22.723911966517676 168 158 151 1.7588327785551094 3 930 5 1117 1 607
816 -1.7779287836030977 1.7917080052676011 3.8818541911265294 75 81 79 1.3470456984332864 5 1689 3 808
1613 -2.251074590039345 1.2934480591416575 9.6516970504931408 3 7 10 1.6313212841522022 6 3265 7 1639 8 1583
531 -1.1292881263224932 0.71421985298388546 11.350572755850976 82 81 76 0.22359481717102136 2 2647 5 1988
1072 -1.0312343827850576 1.2181527689779865 10.019359185050289 40 49 46 1.615709142838174 2 1885 6 1307 3 3361
1071 -3.6182934372621887 -3.5096747626873741 21.488807928608001 139 162 196 0.81536652705768153 2 510 1 542
1070 -3.7034158623753997 -3.4774463110700187 21.505645307287288 94 118 146 0.7603545270551394 2 520 4 390 1 540
1610 -1.6281801396394597 1.3116498590194894 10.191968943860028 7 14 21 1.6501577800183131 6 3103 8 1452
1069 2.8804350089039303 -3.7294042381462287 23.502332275019899 127 117 154 1.1020682250671985 2 512 1 532
527 -2.2228451593803942 0.44077017899099147 9.3637028173027481 151 149 156 1.2144311604288054 2 3021 4 1035 5 1969 3 2098 1 3121 6 1128
1068 -0.47497193651832703 3.7349972657917108 12.125540911417875 84 84 82 1.0391331139755793 2 1177 3 2266 1 523 6 2577
1067 0.23020197775299997 -4.4867569893738573 23.069691352012725 92 80 92 1.1018057664039171 3 396 5 273 1 509
525 -2.205664454169626 0.40532444750351193 9.4141882716022405 95 96 100 0.58381712909804084 4 752 5 1965 6 1254
1066 -2.1911687054936348 1.6969024631500282 9.4161625297680036 0 1 0 0.81041627998139909 6 702 3 1765 5 4017
1064 -1.6239059985033479 3.8263337778914441 11.239116312166654 118 124 122 0.77116159210637647 4 260 1 462 6 239 7 172 8 253
1063 -2.1494338427234374 2.6584124814923573 10.087662240940572 160 166 164 1.3345649612206212 2 633 3 302 5 418 1 452
1061 -2.0047603572331325 0.9016903635267749 10.147465791447152 29 29 29 1.8624828110921916 5 500 1 370
1058 1.8572840288592662 -4.3422935964498901 24.032008796942538 62 57 86 0.88860953663195819 3 200 1 316
1057 -4.1474261389423104 -2.0011699444101327 20.960539408052657 159 154 141 0.71991028295554738 3 1565 1 285
515 -3.1529472319341765 2.2549721944974719 8.997907281641341 19 20 22 1.1513206837937682 5 1851 6 1401
1056 -1.6852631759882462 -3.308835112028361 24.767406410117403 176 142 133 1.9784853510907743 3 260 1 282
1055 -4.2305526688678645 -3.8390293423293804 26.563461786427663 235 234 230 3.0523387566697009 3 366 1 279
513 -2.2114449501064475 1.6526836043409896 9.7390604813575461 3 3 10 0.34687926716401501 4 1974 3 1740
1054 -2.9310245096919929 -2.8977757471738399 21.034639053655365 248 247 242 2.3386324134047309 5 532 1 277
1053 -4.1383944062473459 -1.6112236321509597 20.116096528064549 188 188 180 1.4139958847606833 2 477 5 354 1 273
1052 -5.9336958682544143 -3.0213935291016902 19.602036371502109 160 151 142 1.767570876188058 3 290 1 271
1051 -4.1964461624787051 -3.2967730694133266 21.049739270939934 80 110 128 0.090891701011790116 2 382 1 270
1049 -4.8213791733441704 -1.2555669033826891 20.825378831417705 217 218 213 1.6579777303013314 4 203 1 232
948 -6.1008195643234524 -3.5159027856216638 19.568906360290843 45 38 32 0.20177749244996704 2 114 5 3754 3 3516
1488 -1.0258591639334882 1.2000337312494784 10.027100837958224 11 16 22 2.2777760850016651 2 1843 3 1281 6 3323
379 0.37901392966669856 -3.7755973492159467 23.219816013161662 134 128 136 1.0777511235140991 2 802 5 670 1 917
947 -2.1950939195564976 0.31625074534604147 9.5404413726085089 198 198 207 1.5716512588696097 2 4336 5 3564 3 3489
945 -0.75704299822696552 1.0092284707859371 10.554219584374403 36 35 38 0.22545350362248862 2 3038 1 2702
431 -5.61400951814863 -2.6268306340043677 19.688799393592607 103 108 105 0.74971112060492984 5 1101 1 629
944 -1.5009721879556588 1.0335474700190213 7.1144012788845528 43 40 35 1.0774577661583224 4 498 3 3397
1484 -1.5411852073302297 1.3135463269468883 9.6734657108034057 0 0 0 1.8696565031497869 1 522 5 2895 3 2691
375 1.0483972471506819 -3.1403418807108885 22.426759339870419 208 210 205 1.2150932749301704 5 660 3 680 1 418
943 -1.6461759491985402 0.92776261431018314 9.818352758560362 54 58 60 1.3704754391902749 2 3879 3 3391
429 0.61261764326676604 -3.7571172085562714 23.122162394906972 143 145 158 1.1113521026230788 2 1100 5 1098 3 917 1 916
1482 -1.0463287394973435 1.0951369533771409 9.9705754812335652 68 76 79 0.53135671112184879 3 580 8 1668
373 0.63418267264162254 -4.5895821198293092 22.491810326510706 177 171 164 1.8802783931176403 2 696 5 651 1 616
941 -1.7483969568054218 1.7029089790670677 9.8186051505783176 90 92 91 0.40770123238036327 4 2425 5 2396 3 3328 7 1868
940 -2.3759995710329291 1.7523726585454218 9.5397437602052317 1 6 10 0.3259941895379847 2 2520 3 3326
938 -2.1617493071467107 1.7697628353992383 4.9896834429002466 55 55 55 0.54754677286555176 5 2657 3 3303
937 -2.1226042173911543 4.0464822909928957 11.003955092535644 181 190 188 0.83169004254977097 2 3365 3 3172 1 3385 8 2170
936 -1.452203230930136 3.7764610639667624 11.340164259030367 66 72 70 1.556151931275165 2 3389 3 3158 1 4339
931 -1.6821682983771131 2.501012039936827 10.363858820542736 64 73 70 1.8145544207109232 4 2485 3 3061 6 2621
1470 -1.3777335717479036 1.3852089659642959 9.8622091832567307 67 72 75 1.6208568950123008 3 2759 5 2801 6 2753
361 -0.52096343873528728 3.7864455402939181 11.97107639761526 131 130 125 0.46714882157806553 4 448 5 573 3 423
929 -1.7454351531543797 2.7521248010443768 10.447328787669033 63 72 69 0.8525567156398296 4 1803 3 3043 1 4458
1469 -1.6532907676940087 1.5014062843802924 9.7265165851963857 0 3 7 2.1994234834165063 2 4236 3 3715 6 2752
360 -1.2586696236089798 2.7950222297747231 10.859245529420653 170 181 175 1.5529858545317292 4 437 5 547 3 799 1 1008 6 346 7 349 8 343
928 -0.54657946321890072 3.7743415379363432 12.039226996511465 114 119 115 1.1663122047702583 2 3338 7 1227
1468 -1.5766959876043449 1.4678388979721477 9.756983004134991 207 243 253 1.5760804512036553 1 1037 3 1981 5 2827 6 2748
359 -1.6838399967407018 2.8958310913074397 10.597377699420882 68 77 72 1.6628264133556612 4 450 5 544 3 528 6 545 8 804
927 -1.8551592914490509 2.8802559322163437 10.481816242389167 59 68 65 2.3786419312753577 3 3025 7 481 5 1674
925 -1.8062034313680768 2.9156295337155118 10.561241919340247 59 68 65 1.4863748489311874 2 4045 3 3022 1 4790
923 -1.7568453462219455 3.0110000386786053 10.603153264025355 64 73 70 0.46897893097367532 4 2504 3 3011 1 4453
921 -3.5051076539081132 1.9777328081155781 9.3688351583577028 65 61 61 0.045709642271335206 3 2932 1 3586
1461 -1.6548530559474872 1.4149125148896351 9.681601476540818 59 64 67 1.4450384068261324 1 2188 3 3413 6 2672 5 4136
352 -5.3733661973304843 -3.0669061294841482 19.360378648375601 178 176 164 1.3679014909288134 2 527 4 229 5 515 3 374 1 544
920 -1.1312232822483084 0.91002866959846851 10.986867131780279 80 86 84 0.59488149911846477 2 3048 3 2928
917 -2.5671602454237776 0.47166839034722163 9.3957030717457091 37 38 39 0.22003369736345657 2 2037 5 3626
1457 -0.54856352177708168 2.3770990678081709 11.495324460517718 151 162 158 3.4298532919219848 4 966 6 2613
348 0.36382208386356668 -3.8817583067505552 23.243200865370046 121 118 127 1.0120710649511813 2 798 5 507 3 633 1 640
916 -0.57105586632517735 1.2414323993164647 10.466797996687127 58 59 60 1.7559748112899336 4 2633 3 2815
915 -0.71131948299746517 1.2658630211072501 10.52890554991062 28 32 31 2.0822959705685284 4 1972 3 2804 6 1405
1455 -0.85308820447405231 3.8881980676408379 11.907378481725981 76 81 80 0.94437449923745997 1 2281 5 4218 6 2588
346 0.54499727533978937 -3.7997760353577212 23.053953097052375 103 102 125 0.56139017935498803 2 518 5 505 3 461 1 541
914 -0.80394998725272249 1.2749931854332657 10.591069201310377 40 54 54 1.9040372069926095 4 2990 5 1537 3 2801
913 -3.3116584276256575 1.5669446980028485 9.9113266872223349 75 71 70 2.33848642176789 2 2895 5 2799 3 2789
1453 -0.6351111340113057 3.8128902989534512 12.024661973361194 129 135 133 1.781696368400711 3 1875 6 2584 8 1706
344 -0.63133075037183761 1.0638289761305908 10.608455656646385 30 29 27 0.12519704494297063 4 510 5 484
912 -2.886864718692324 1.5200493714357071 10.327888497661595 63 72 71 0.60734785575263683 3 2756 1 3810
909 -2.5004078557075951 0.3868814704042825 9.5035738938127938 62 54 55 1.0152438937598971 2 2952 5 1389 1 3112
907 -2.0372944843045495 1.9566413009170196 9.7137125332430916 55 59 62 1.3756056654917932 2 4179 1 2490 4 1456
934 -1.8566648696883423 2.6371041932198667 10.354546854352227 63 72 69 1.5355047696623478 2 3962 3 3092 1 4398
393 0.81543846646190354 -4.5641780646452617 22.597823968521642 130 128 139 0.92595630285330255 2 700 5 767 3 731 1 612
1502 -1.5466837209553086 1.0194402486307039 10.94905748649332 83 103 102 0.99978754130391068 4 791 6 643
905 -2.1688396320682486 1.6240816206299824 9.8233872213301314 19 19 19 2.4915917003014432 4 1070 5 2522 3 2512
932 -1.7480258504716844 2.4775454354729081 10.29728271777604 156 162 160 1.6206913502198692 2 3157 3 3062 1 3165 5 4567 6 2624 8 2107
903 -1.6440578385037001 4.1234278451351249 11.448846804409023 98 104 103 1.2000028998725596 2 2414 3 2448 1 2390 6 1859
389 -7.7502149799901039 -4.8717872296828482 23.513410481226504 109 101 98 1.4011689416333377 2 695 5 733 3 696
1498 -2.4266222719508836 1.0200006913009039 9.3039702492403826 5 10 15 1.5481153844942468 4 424 7 367
899 -1.8322200014008656 3.9068166121247643 11.154743419724507 48 59 55 0.63357809172862811 2 3382 3 2424 1 3397 8 2172
898 -2.138654968088896 4.0198849651589033 10.963445098232437 182 194 192 1.6074442970715788 2 3368 3 2410 1 3388 6 1953
897 -1.8310476485499261 3.933581183411865 11.164462001619633 50 57 55 0.62337516006568694 2 2434 3 2409 1 3395 6 1934 7 1768
895 -2.6541938187216076 0.35595211781437996 9.4161109469360031 0 0 0 0.55312652050362998 4 2297 5 971
893 -1.8225056346118278 2.7862775352002664 10.43683406381124 69 78 75 1.0060146508044636 4 1802 3 2349 1 4792 7 1694
892 -1.7135959868554536 3.859219443119319 11.207148557894405 53 59 56 0.93495470590208318 2 2389 4 1251 3 2348 1 2303 6 1932 7 1770 8 1649
378 0.73645294086674484 -3.7700353661692567 23.10172519074764 149 151 164 0.62544473975583648 2 1098 5 669 3 686 1 913
891 -1.4167080079963079 2.8788313248993118 10.781934474622059 61 70 67 0.64951305529022907 2 3361 3 2344 8 1197
889 -3.1458268709190933 2.4269058733370934 9.2281039762136103 60 66 66 1.3953744026053669 4 1312 3 2334 1 3161
887 -2.02198916083114 2.5753300109888904 10.14425314524928 168 176 173 0.99065239920001058 2 3935 3 2322 1 3145
886 -2.011903988521262 2.6250387101794193 10.170673470970483 159 168 165 1.7289586030758812 2 3204 3 2320 1 4400 6 2622
885 -1.4537144733695495 3.769508637162577 11.359539960425362 180 189 186 0.24182665309718859 2 2651 3 2308 1 3338 7 936
884 -1.5558896462640983 3.796750619993317 11.291233710870269 53 58 56 0.96955269230682317 2 2399 3 2301 1 2313 6 1939 7 1180 8 1653
911 -1.6178496573100529 1.2321711900319237 5.4543077748715136 2 3 5 2.081848338824754 4 1557 3 2743
370 -7.6312311524123304 -4.4309356412910139 24.082929986893213 88 83 80 0.57211992925141641 2 783 5 647 3 520
883 -1.6104078239045219 3.8164179468411281 11.274709490372029 44 49 47 0.70712804236064042 2 3387 3 2298 6 1276
881 -1.6961483612909571 3.8514211644309917 11.213465077760453 53 59 57 0.57148944236318788 2 3386 4 1922 3 2291 1 3349 6 1943 7 1757
908 -2.0417093731613432 1.9480094180123733 9.7078813674231164 3 8 11 0.44371791356059176 2 3593 3 2611 1 4090
367 0.81048067874365859 -4.7106655940232471 22.489889721617519 135 135 147 0.99584463579443661 2 560 5 640 3 373 1 517
1476 -1.8425791017562325 1.6158302289054809 9.6387757576072399 9 16 22 0.58017275759988796 3 3686 5 4622 6 3027
880 -1.6143098783087109 3.8622199891126088 11.28010054652877 61 67 65 0.57980535471081163 2 2393 4 1254 3 2289 1 2296 6 1285 8 1093
878 -1.9136081928461761 2.9959900517301548 10.486851649037572 54 63 60 0.460443768712816 2 3355 3 2280 1 2295
877 -1.450603042355479 3.7372355204181824 11.341356873151298 185 194 193 0.52173492704163926 2 2654 4 1891 3 2276 1 2602 6 1945 7 1173
876 -2.131747060976342 2.3424292010135428 5.3536785321208757 111 113 110 1.6049650475279837 5 2585 3 2271
875 -1.2787151882732617 3.6960406648470032 11.446841267549221 175 184 180 0.59929401212879274 2 3337 4 1892 3 2265
902 -1.671278985242908 4.1231212090959648 11.420036224461338 93 99 97 1.240286010304948 2 2412 3 2446 8 1065
874 -1.3039455872818768 3.7096940835697816 11.438721161698915 184 195 193 0.8852071162638695 2 3393 3 2264 7 1780
901 -2.234415392384316 1.6139341187848848 9.7338868820015048 8 6 9 1.093000527604705 4 723 6 461
873 -1.96991855707524 0.65783929926626927 9.08338622465965 49 49 49 1.141643163015797 2 2174 4 1767 5 2014 3 2257
900 -2.2118746743701418 4.083582403036 10.967842325763012 70 74 75 1.249765569257463 2 3299 3 2444 1 3378 6 1942 7 1182
872 -2.4642116193222621 0.71074983372477174 9.3362088929276581 31 27 26 1.8205127752835981 2 979 3 2256
870 -1.9351909772714406 0.90239178756683447 11.63346555366271 7 7 7 1.339842174578594 2 503 3 2177
868 -1.0191403755399957 0.76498863459550637 11.023663380310174 78 81 82 0.062291673238998743 2 3131 3 2142
867 -2.4599021185495191 0.40943478550123752 9.3830954564840781 22 22 24 1.3347534159377856 2 2043 3 2110 1 1513
866 -1.7088224153332041 1.3850643705331669 9.9088439406061415 32 36 39 1.7379344324604249 4 2080 1 4592
1406 -2.8630707741999735 2.2023092948963914 9.2126492797291437 36 40 43 2.8263625703383863 3 2599 6 1887
865 -1.7949841250088083 1.3974380444061374 9.735924886009359 74 69 67 2.1307333654346872 4 1612 5 2165 3 2029
863 -3.1372572358848281 1.6237874406792372 9.80697176242629 17 21 24 1.2465338601498637 2 2802 3 2021
862 -0.68776335156815949 1.4584135952303503 10.545801725808541 15 19 19 1.6222310459566891 2 1382 3 2014 1 1038
861 -3.3919048565385608 1.5885496303397046 9.4434259340243898 27 25 26 1.9638421319776236 2 2614 3 1994
860 -0.58042484012791451 1.1283412056386501 10.492174191587997 90 91 86 0.52482362497031598 2 2154 5 2259 1 3679
859 -1.8733629684531803 1.3001348852417904 9.8004122729859322 38 38 38 0.040673683511085038 3 1888 1 1854
857 -1.5391445405236519 3.7904211704654815 11.30232639833142 58 60 59 0.65997027128207353 4 1925 3 1876 6 1938 8 1651
856 -3.0629619907589141 2.376484048849075 9.1508982357871975 62 66 67 0.58194475122897116 5 1752 3 1830 6 2509
855 -1.4278382353220196 2.3145095459167031 10.435170396655396 172 178 176 1.499795171791086 4 981 3 1826 1 3248 5 3917
851 -1.7726989594621072 2.4544483953379168 10.261068635259187 172 181 178 0.67696613651239446 4 1273 3 1724 6 769 5 2287
838 -2.1069596066447125 4.0634022266019976 11.03727854674576 53 57 56 1.517518566296151 4 2449 3 1443 1 2394 6 1281 8 2171
832 -1.897634338964951 3.94410934570669 11.112763937953558 55 57 56 2.149621935888498 2 2433 3 1184 1 1621 6 899 2 3377
935 -1.6618991289187668 3.900788563913792 11.300118785410669 62 67 65 1.1385015448247342 2 4477 4 2447 3 3148
957 -0.57061769365582371 1.3763422097731428 10.490719915431491 105 102 101 0.37927641311982907 4 2588 3 3659
933 -1.9279933486801217 2.6613278312471147 10.274646018477034 62 71 68 1.2547537923756098 2 4423 3 3086 8 1213
961 -1.999383172423957 1.5878706659895321 10.015780291447124 119 114 106 2.1203253659786392 2 2826 3 3721 1 2800
946 -2.1987039132994175 0.3033515583427161 9.4084136983496354 239 241 237 1.7908651819586501 4 1644 3 3484 1 4656
405 -1.5930378178842108 3.828082946959551 11.288905911611639 62 66 65 2.152063843213881 2 1447 4 592 5 829 3 791 1 1639 6 904 7 942 8 784
1514 -4.8526152463914549 -2.6998152651923091 20.057761525577284 175 208 239 0.24773937240526561 4 2676 6 1445
412 -1.6081497008775074 3.8451356667998997 11.280468179379842 184 193 190 0.598376349886241 2 1173 4 588 5 914 3 1042 1 1632
980 -5.5640682798269188 -1.684336183569171 12.598655280564895 77 81 93 2.7599758625157618 2 64 3 68
439 -1.7640151856692137 2.5785191970200438 10.340726688726237 166 175 172 0.87497250829633733 2 1204 5 1171 3 906 1 1563 6 822
386 -7.743606994384642 -4.6588436546972547 23.652410053534343 99 91 89 1.1141842077488551 2 712 5 720 3 748
1495 -5.6576913307755818 -1.3991924911281515 22.473820685182375 147 144 137 2.9553085952041158 4 136 6 90
517 -3.1237675320851137 2.6069622921140256 9.3660964012686421 70 74 69 1.1349423524152245 4 638 1 4412 2 1207
1599 -1.7674881675252896 2.7441579630245965 10.440744193859908 80 90 89 0.41607804983387731 2 3958 7 1202
490 -1.7293082845223409 3.9029274081621597 11.22465410306096 188 193 186 0.55537439066423577 2 2388 4 842 5 1654 3 1601 1 3400 6 1282
1726 -1.8214239466143158 3.9147411004023112 11.126637000988408 174 183 180 2.8104822374085616 7 968 8 819
617 -1.8533923976613951 0.29664469432266038 10.056882910254394 0 0 0 0.60910107051050777 2 2957 4 2251
387 -7.7564492198450905 -4.7766455222407282 23.616218105933314 104 99 96 1.968440180483741 2 704 5 728 3 701
1496 -2.1884606110947451 0.44857661336361621 10.50048222356916 23 24 29 1.4156782727578543 4 2816 6 92
1731 -1.0387365634209513 3.979951841558337 11.549314928154583 192 198 194 0.11578866600436825 7 1729 8 1075
622 -2.0016115626130335 3.0857682098334638 10.474799836100065 45 51 49 1.4196715508078754 4 1240 1 3189 6 1215 8 1192
1732 -1.9465320875771566 3.9476597453272864 11.078558381921589 84 90 88 2.1268576923533571 5 2661 8 1084
623 -2.1930329000964308 3.0493413840810986 10.21106863185207 44 53 49 0.63361902029456652 4 869 5 3137 3 1635
1733 -1.6861938490657946 3.8797722002762014 11.207320948026082 86 92 90 2.0454196687127242 7 690 8 1092
624 -1.7730317003070375 3.0200879172472352 10.608219641940277 53 62 58 1.6622266221842577 2 3354 4 2503 5 3139 3 2277 8 1647
394 -7.7512547858912901 -4.4474414443871693 23.85973125919659 88 84 83 1.0266443113921471 2 736 5 768 3 734
1735 -1.8659482629043662 2.7782362685338979 10.388877378326638 81 90 86 1.1018253520370356 2 2230 5 3227 8 1184
626 -1.6290286521186996 3.8485896608826153 11.250166994152108 183 194 188 0.18609642381213978 2 4015 5 3147 1 4292
396 -3.068048888378855 2.4492393862858126 9.4192896573083438 32 36 37 1.2373328044007861 2 940 5 782 3 815 1 997
1505 -0.95432985075292831 1.1084813469191119 9.9866897095733087 0 4 10 2.9355655144189789 3 1274 6 689
1478 -0.84972059475089734 4.0052895301690636 11.977219227359837 202 209 210 1.6285273712760262 3 3144 6 3052 8 1708
369 0.70439245472325873 -4.4768479295672758 22.570560928659894 149 147 146 0.92014721154135648 2 707 5 645 3 524 1 512
1738 -1.5216409003208313 2.4560808714860167 10.539758711430489 0 0 0 2.4424620331710027 1 1862 2 640
1481 -1.5254802780421373 3.8341392384568485 11.339817111077924 88 96 96 0.15779627229421822 5 4215 6 3080
372 -7.8846160826394227 -4.2428940320704474 23.799961199077522 65 56 51 0.70505024461305366 2 786 5 649 3 516
1743 -2.0888879811634706 1.2855694732547611 9.4661611557565948 30 29 24 0.70355849575516705 7 865 8 1333
634 -1.8520477301593707 2.7137590878786844 10.369478199787588 65 74 70 0.96945516197362691 2 3196 5 3186 7 1222
404 -1.9092770487579733 3.9485699413199402 11.107007783177536 63 65 62 0.80748277594957973 4 463 5 827 3 789 8 816 7 676
1744 -3.0430860202462258 2.3561217762188189 9.1376217871229848 40 45 48 0.69214565208598744 7 1168 8 1388
635 -1.6908265777880489 2.709115679666843 10.47231960361896 100 111 107 1.5163922285172537 4 1798 5 3187 1 2322 8 2104
1678 -1.5220599224241789 1.1437722786705424 9.6160792813322544 10 11 13 1.0316364113331151 4 2760 7 1465
569 -3.3423223175673966 2.1363787527721345 9.2258792215348713 58 58 58 2.4660001192427834 2 3971 5 2427 3 2572 1 4154
1421 -1.8831748786235862 1.5395399515397858 9.5678594893318554 145 139 131 1.6786556309405767 2 1684 6 2077
312 -6.8812501802524872 -2.5815689442031839 20.170889953105373 58 81 90 0.6167307100139976 4 235 5 336 3 364
1264 -1.8707466857647501 0.83337281049030221 9.7406573332408595 36 35 33 2.3337231431503365 4 249 1 369
155 -1.3493840510349542 1.2384441735136469 9.7055543066833447 36 38 37 2.7396718202227182 2 2791 4 1144
1805 -3.1009243187009532 2.867612418158747 9.498566948465804 106 111 105 0.084522555288531614 5 1859 8 266
1679 -1.7897506672164969 1.3562182178532156 9.8367039958877438 0 0 0 2.9175173830938705 4 2188 5 2891
570 -0.57493615606584891 1.7833815035284011 10.778645469912735 81 85 84 0.89221199113341421 4 1425 5 2434 3 3262
1422 -1.6729455319688571 1.4356052401570123 9.6734485654635307 54 58 59 1.2149736675405816 2 2885 3 2048 6 2089
313 -2.1283835799105408 -1.9904439192605476 15.64882409974436 253 254 249 1.8318278166877162 4 243 5 337
1265 -2.8452858884977892 1.4707478466461799 10.297935513318619 27 22 24 1.9268799371469405 2 464 1 409
156 -2.0277142607437564 1.6199710962690856 9.710831049584014 107 104 100 1.0951413499790636 2 2806 4 1464 1 2237
1806 -3.1761141300808817 2.1080716505654249 9.1139708582922339 80 76 73 0.15078076222610545 7 200 8 279
1681 -3.1565788913948669 3.0084808432069128 9.5914964638308451 147 154 149 1.8885184015047596 6 605 7 2090 8 1737
1424 -0.83738738066108487 1.2001055075236544 10.175307199734517 67 81 84 0.67439480604855495 2 1804 6 2100
1267 -1.6428771318725632 0.94908400925535907 9.7412989224824234 82 82 80 2.2771471321820247 2 682 1 555
158 -3.314544245176501 1.573921796611272 9.8800329352247349 7 10 13 1.1203156976517312 2 2891 4 2166 3 1859
1808 -1.8441453808516928 1.3117337934409989 10.087830965369504 0 3 6 3.3919203357425181 7 557 8 286
699 -2.2040309397940017 4.0231955265362469 10.922464027584947 28 32 33 1.5593361425164551 4 3118 5 4107 3 3665 1 4925
469 -2.7113274369607931 1.306567731807915 9.9244870655212427 213 208 215 2.2691720186042366 4 154 5 1490 3 1964 2 1016
1551 -1.849095944440905 2.8463533845469269 10.47599944587861 93 103 102 1.3477964274763972 5 202 7 126 8 128
442 -1.4373723975279493 3.7517664351649076 11.358407733649701 82 85 84 1.6776821465581293 2 1635 4 830 5 1206 1 1591 6 903 8 1068
1682 -1.3433919994205676 1.5780834762652316 10.043557194515882 42 47 50 2.8371600493989018 3 2654 7 2117
573 -1.885315325755458 5.1884861169554286 10.251724093089887 250 254 249 1.137295753188031 5 2481 3 3140 1 2587
1268 -2.5133652274308558 1.0989473252604707 9.5172040721820803 5 6 8 0.96556170735908231 4 47 1 589
1809 -1.8223134493060258 1.2709677399774271 9.9677555636926911 37 37 37 3.099329834361491 4 410 8 389
700 -2.1171762332962247 1.4510113409187382 8.8510508965921915 60 61 63 0.15605011739252703 2 2715 5 4138
470 -2.6873584081851303 1.3438885505708487 9.8488368324643361 10 11 15 1.2872992318238081 4 795 5 1502
1579 -2.0108256114744698 4.0026542198967823 11.064353321304491 179 189 188 1.2852457311040764 6 901 7 668 8 446
1552 -1.8831418271657097 0.73902957861779772 10.015715897963199 20 25 31 0.067690694637881715 6 250 8 1320
443 -1.4138794567605637 3.7674823065215093 11.379065335270839 180 192 188 0.88514313627733188 2 1636 4 835 5 1207 3 1227 1 1590
541 -2.4943629637541584 0.36940556896278837 9.5067376154394285 63 66 64 0.63637332769047372 2 4302 5 2071 3 2853
1750 -2.0729221698735492 1.4108244567312969 9.5547353217471276 38 35 37 2.5623505646797073 7 1414 8 1532
641 -1.6688711414338233 2.8948741201560293 10.596396987107616 51 60 55 0.78815757128585906 4 1907 5 3207 3 2343
411 -2.0233412887972428 0.35521782713615946 9.473003378232546 29 31 37 0.84091867873446269 4 533 5 906 6 750 7 499
1493 -2.104822961306287 2.6507453496451818 10.126374719281412 169 179 179 2.2352613784635711 4 43 7 41 3 75 8 48
384 -2.2028470526932624 0.33525068150470627 9.4980801224928619 49 50 54 1.7667875208253432 4 535 5 711 3 991 1 745 6 510
1683 -0.6917372366926825 1.4849380492455817 10.935759082756688 116 122 121 0.25247705010090687 6 2511 7 2157
574 -2.1720464583433747 2.6031178109476922 10.108529599798796 21 32 28 1.3494437104742703 4 1788 5 2507 7 404
1269 0.59531976382929808 -3.9276554454776376 22.868725061395256 140 138 141 1.5616464390223175 3 624 5 680 1 842
160 -2.089932969933272 0.31252553886501355 9.5446867352406795 25 25 23 1.122376322601002 2 2971 4 746 5 1372 3 2075 1 3083
1810 -2.0683017442849621 1.2040237837535559 9.3648526536328252 122 129 123 1.9081670819877758 7 859 8 455
1751 -1.8821194522041678 1.1467352606526666 9.2509500846420476 118 129 123 2.1218634059036914 4 1522 8 1566
642 -1.3419936750763308 2.8515430419478531 10.843348291336056 59 67 64 1.7028991673350378 2 4051 5 3218 3 3586 1 3199
1684 -3.1046135356666502 2.3904827246311693 9.1364067414345858 138 142 143 0.72706849415438712 6 2520 7 2295
575 -1.9934149687454437 1.6056192814090224 10.024873511227074 96 86 78 1.0247545631882684 4 2000 5 2527 3 2519
1427 -1.0256386227494316 1.2412944442239928 10.032433086948306 60 67 70 0.75526355936808409 3 2706 6 2137
318 0.86892348438027744 -3.7299570282749959 22.970296933169038 198 198 187 0.93149133040598608 2 397 3 457 1 534
1270 -3.3026921200702031 2.159238352387352 9.2221705911318779 16 16 17 2.4810692063303348 3 164 1 930
161 -2.2163314194009671 -0.1260226682513266 4.9970662187795423 155 124 104 1.7057400135287102 2 2993 4 1084
1811 -0.75534502299889306 1.5024216580586349 10.629213287223658 14 21 21 0.49910601917923303 7 1288 8 538
702 -0.49139515543335416 2.6803076615735657 11.49635785250047 173 178 174 0.87288646984278406 5 4159 3 3998 1 1232
1685 -2.4210605583234956 0.73828057393202096 9.0436218425921204 177 181 177 0.89874700086795833 6 813 7 2351
576 -2.1491545319322873 3.0570381200703629 10.325204818553081 57 66 63 1.8463534664444745 2 4410 4 1235 5 2541 3 3051 6 1922 8 1804
1428 -1.1713000854146127 4.0274423801900401 11.733047137168162 126 132 128 0.79622552972097915 3 2412 5 3148 6 2148 8 1615
319 0.79974093547419633 -3.778131478581968 23.045717671975677 121 123 147 1.2874177223786103 2 396 5 344 3 353 1 537
1271 -3.3069228263449291 2.0156956984029244 10.282837366618395 50 54 57 2.0947405732184738 2 1166 1 953
1812 -2.3641466157726159 0.58755502841772667 9.7381491642078046 0 0 0 0.31785990844625722 4 808 7 361
703 -0.48369719471639117 3.1833288747968993 11.806965466178239 158 163 159 1.215824405111378 4 571 5 4187 6 390
473 -2.2056928357226711 0.45725154868536766 9.2960813562373534 246 254 252 0.22353096851648621 2 993 5 1580 3 1456
1555 -2.3130920573407305 0.39951389792870512 9.3904509276562678 52 53 48 1.5078831484183952 6 200 7 152 8 149
446 -1.6296878922687863 3.8116664881810647 11.235562027373398 187 196 193 0.74835020833614863 2 1640 4 836 5 1210 3 1606 1 1642 6 891 8 792 7 971
1272 -1.2777605771346994 3.414446033550274 23.481882586997354 48 57 52 3.0802687113967528 3 1144 1 996
1813 -2.2035074404623605 0.6622251484366648 9.0415683892982699 65 64 62 1.0173269557229971 7 1308 8 678
704 -1.5026346436828693 2.7953052716821003 10.682559813550101 149 155 154 0.93587450206286404 2 3994 5 4195 3 3568 6 3068 8 2383
1687 -2.1156759175220157 0.4367785421442727 9.6606551434320114 44 39 44 1.0706763603584766 6 2405 8 2395
578 -1.6306053542430952 3.8356861661034487 11.256168124050424 42 48 47 0.61094650829881092 2 2394 4 1924 5 2561 3 2293 1 3337 6 1936 7 1772 8 1655
1430 -0.97999245395397028 1.2179445783325065 10.064217785856185 60 65 70 1.1915103863715772 2 4354 5 4312 6 2156
