# 3D point list with one line of data per point:
#   POINT3D_ID, X, Y, Z, R, G, B, ERROR, TRACK[] as (IMAGE_ID, POINT2D_IDX)
# Number of points: 359, mean track length: 6.8122725769103543
4809 1.9069316790878468 -2.6034032917635233 4.9336011381075169 29 33 18 0.74077699049760626 32 566 33 642 36 592 37 637 39 670
4807 5.3764115192318886 -2.8063224051339875 5.2163127106768288 139 138 118 0.43646115858419537 32 787 33 901 36 574 37 617
4806 5.5386195747682336 -2.8268114845353729 5.1799674529598896 118 114 93 0.13322469457106814 32 526 36 573 37 616
6193 1.4439881678650233 -0.36617717089659324 7.0988262664833641 219 207 186 1.6462999260149032 48 51 49 23 50 44 51 38 57 32 52 33 56 35 54 37 60 23 61 21 59 16 58 18 55 13 53 20
4803 1.1028455899569374 -2.1060840490319972 5.3907439607020118 90 87 82 1.1637172175528236 33 609 36 559 37 590 39 919 38 691
7159 0.9374190036671296 -2.5472880770370265 6.7094270290926437 57 48 43 1.5467308205062025 50 661 51 828 52 786 57 947 56 893 60 955 61 966 59 1046 58 890 55 600 53 482
4802 1.3813535168801554 -2.0819775417522202 5.0978043728910212 117 114 109 0.75761161903500684 32 420 36 558 37 829 39 620
4801 5.8504823174258922 -3.2577510768021312 5.3194287545779506 121 96 69 0.92090893460997492 37 583 39 923 38 526 45 750 41 552 40 822 43 607 42 486 46 588 44 541 47 419 49 484 50 505 51 512 52 530 57 530
1474 5.3163766099761016 0.27849029775191819 7.2631994715353931 68 73 69 1.776276274206342 22 890 17 884 20 586 14 897 16 1217 15 1300 35 824 32 879 37 969 39 1003 36 506 38 683 41 668
6561 1.9872010227157983 -2.3659015163853931 4.8766668441240864 59 55 44 0.52198786611690917 47 251 48 404 49 473
4800 5.4311666862080221 -3.0715645764507471 5.1196913411909186 124 100 62 0.58494133298964346 32 541 33 611 36 555 39 929
7153 3.0392464600544056 -1.8497561119864652 4.9278156492403244 104 101 83 0.69896146841145879 46 663 50 362 51 743
4796 5.7567793193445018 0.40554472167867195 7.2031607514151608 114 112 100 0.59945586144423291 32 358 33 405 36 508 39 589
4795 1.2736615383503118 -1.7535845893152804 5.8838143445957751 173 142 124 1.0654220266111978 36 504 37 538 39 752 38 513 41 564 45 520 40 679 43 491 44 502 42 453 46 537 50 652
7149 2.6648136092560568 -1.3477780042429817 4.6828100208451477 146 171 142 1.0395550442150687 48 949 50 1025 51 705 49 989 52 889 57 1086 56 1023 54 960
4792 1.2401985341370607 -0.98054458057058269 6.5624282766552149 251 242 216 1.8522688846949928 31 738 32 471 36 478 40 375 43 356
1465 3.1222734010335826 -3.4924314648339858 6.0732335362994325 164 147 121 1.8342021658374339 25 382 17 827 21 351 31 376
6552 2.7752656821144011 -1.5307847278553235 5.1909159105840574 178 194 168 1.7218785977149669 47 614 48 375 49 296 51 249 52 171 57 174 50 141 46 642 59 161
4790 2.5577161510219404 -2.7794750919336613 5.2039271328565722 81 77 73 0.81150307851335579 32 451 33 507 36 476 37 796 39 879 38 670
4788 1.3912020724182828 -2.4290477246129236 5.2871710054647618 78 75 70 1.4519223852068996 32 457 33 673 36 471 39 478 38 436
7144 3.1186929960768071 -2.7504887999521581 5.0508615068345444 96 83 64 0.81839382005386785 50 681 51 681 52 689
4787 3.3672928244328797 -2.8415777029376788 5.1547868008964217 117 89 71 1.3890335954310375 32 368 36 470 34 271 37 656
1460 2.4497980217534052 -2.6359452009813076 4.920374708641825 68 70 69 0.10350346651885595 18 842 19 809 17 805 9 780
6547 1.4008377334125728 -1.7687561643334579 5.2781587597073418 58 45 36 0.96365812962734354 38 231 39 317 47 320 48 350 49 385 50 263 51 398 52 290 57 297
4786 1.9414564109703181 -2.6049020154640958 4.9839570366905601 78 77 70 1.338096345747249 33 510 36 454 38 425 39 175 46 413 47 378
4783 3.4921685441438601 -2.3822963347950612 5.2236280156560095 116 113 92 0.92215450919372133 32 542 33 637 36 443 37 573
2425 -0.79150552030024712 0.37311138300572266 11.233191478231717 155 155 143 1.4399301591282061 19 371 7 346 20 471
4782 1.1743028165294072 -2.1936827230988065 5.3052473082180294 52 51 46 1.4769577096499431 32 407 33 475 36 433 37 420 39 336 38 392 45 222 41 195 40 330 43 229 44 378 42 326
4780 1.7474577840636609 -1.6769968003553368 5.0242726642285032 156 109 95 0.4559817311411396 32 426 33 573 36 429 37 339
7136 1.4612962606565283 -0.25446332954061751 6.73505617399322 209 200 183 1.2036446046471789 51 582 52 419 57 456 54 434 59 386 58 339 55 334 53 285
4779 1.5710760273469659 -2.2353547418462036 4.9054816183167835 79 78 73 1.5997656504131492 32 580 36 420 37 497 39 342 45 547 40 328 43 445
6166 1.3022739110138004 -1.8902201463951502 5.4926507643291789 116 90 77 1.2593983090258909 44 36 42 39 46 32 47 36
4778 2.4327107987216969 -2.0736761518437508 4.9671578266866323 52 52 44 2.2181140052675281 32 248 36 419 37 453 39 449 41 386 45 413
4777 2.2936681197593276 -1.9415909212726554 4.8294063443210611 53 50 43 1.6587311294315557 32 432 36 416 37 445 39 604
1450 0.8423212004136329 1.8417910493249976 9.5562370068598383 209 210 204 0.39407109756192604 18 687 19 746 20 557 22 623 17 739 24 624 9 721 14 736 13 738 6 745 4 673 8 755 7 950 16 1279 5 949 15 1369 3 1305 12 1367 1 1255 2 1313
6537 1.3470259229059902 -0.25432307988190195 6.5487161276791515 241 238 219 1.2086441514024631 46 235 47 195 48 285 49 318 50 319 51 225 57 244 56 263 60 242 59 269 61 258 55 266 53 284
4776 1.2002428807882886 -1.9889686511287388 5.0702689850593528 103 100 93 0.8915180911990539 32 237 36 411 33 603 37 355 39 248
4775 5.3595290545905749 -3.2443898607204762 5.0808183713088289 185 172 130 0.86874246863637128 32 416 33 461 36 407 37 346 39 396
4774 1.0149894900730523 -2.2465884854045406 5.6355173304202371 63 59 50 1.3178235442764912 36 405 37 407 39 513 38 234 41 194 45 223 40 274 43 226 44 263 46 270
4773 1.1004212512351466 -2.187699215254022 5.5127482978161515 93 90 83 0.92434187694702663 32 401 36 403 37 379 39 503 38 388 41 332
4772 1.2655763381645153 -2.0704753105148495 5.1001499383372737 71 68 63 0.43416276102236173 32 423 36 400 37 350
4770 2.0131821493970339 -1.0711531750062635 5.7439378446940514 148 95 87 1.2694228670777845 34 498 36 367 37 382 39 401 38 347 45 400 41 314 40 386 43 358 44 366 42 324 46 291 47 263 48 272 49 304 50 428 51 414 52 443 57 446 56 465 54 447 60 907
4767 4.6720516366659632 -0.0063998500128788407 7.0314757518347379 90 96 94 0.53846894693626723 33 392 36 357 37 367 39 543
4765 5.4888185508177747 -2.8767964620898341 5.1370876278661965 170 155 124 0.51069787140390188 32 338 36 342 33 382 37 360
4762 3.5953805314209761 -2.1310778352968542 6.1536746568526945 98 79 65 2.3814228197409055 32 299 36 326 33 367
4761 3.1690021563951327 -1.5875612996598036 5.014136257060585 220 196 160 0.43795710474419564 34 440 35 367 36 318
4760 2.9093793446945115 -1.9278074248632673 5.0204355370007612 113 103 91 1.1864611369182487 32 310 36 317 37 602
7116 0.95880320683896891 -1.9992804976758842 6.7543368385189497 37 29 16 1.0106411547131697 50 379 51 388 52 284 57 291 54 373 60 301 61 407 59 411
4759 3.6893211923721987 -1.6973722165676655 6.3965882863620696 0 0 0 1.3823086141202809 29 483 30 715 31 707 26 370
4757 1.778824344514558 -1.6547713340028829 5.0320226196573534 188 142 126 1.2980542980949081 33 227 35 237 34 230 36 300 37 341 39 364 38 460
4755 1.9730901367354934 -1.6990449999121533 4.7262177096029392 102 74 65 0.82246140669969814 36 297 37 306 42 285
4751 1.8444470392614494 -2.2142224210610726 4.7011259212320127 13 15 10 1.4359232677877669 32 233 33 177 36 262 37 422 39 234
1424 0.83172265651139243 1.879089195889166 9.5259219806681994 132 174 172 0.36020447150672147 18 604 19 620 20 558 22 624 17 605 9 608 14 608 13 787 6 734 4 594 8 632 11 748 7 774 16 746 10 681 5 769 15 679 3 961 12 1000 1 1057 2 907
6511 1.2093618223363416 -2.3394776224071276 5.7740458624580082 44 40 31 1.714964732411522 47 155 48 157 49 158
2393 -1.9589715648276265 -4.5015105599429592 12.634262479123008 169 144 124 0.50480682597468274 17 167 7 166
4750 1.6112997216915272 -2.1971754324805772 4.8814694363521687 80 79 75 1.4851377014946274 37 175 39 236 38 390 45 220 41 196 40 278 43 233 44 409 42 377 46 432
4749 1.1314447281547506 -2.2865360380158966 5.545833103145684 96 93 86 0.25011046896727002 32 466 33 615 36 260 37 269
4747 0.93431148761502625 -2.5143521830648266 5.9358903580151203 114 108 95 1.2350544302975435 32 265 36 255 37 396 39 354 38 431 41 218 45 169
1420 -1.4180272933149718 0.7522547186681301 12.846669044376499 169 170 156 1.472920445705316 18 583 19 600 20 542 17 577 9 592 14 684 13 976
6507 2.7954401745858179 -1.5668083959634664 5.3299333151737898 185 208 179 1.8282219525093559 48 133 49 153 51 167 52 161 54 190 56 169 60 232 61 416 59 373 58 345
4746 1.3205390804546602 -2.540216252092506 5.4276417491378526 96 92 86 0.62659070126900895 32 450 36 251 33 643
4742 5.4458597571590257 -2.9344317641328872 5.0445215357152851 152 133 101 0.13206308925073401 32 395 36 232 37 235
7098 3.2817856963361076 -2.4163922888166987 4.9664636503283912 81 79 64 2.2484618589638425 48 239 49 256 50 254 51 286 57 290 52 282
4741 1.270448144886966 -2.0736489275712442 4.9995890544035833 48 45 38 0.65980293935728762 32 400 36 220 33 451 37 416 39 334 41 437 45 466
7095 1.601338346590393 -2.0536396211419214 4.9388827325790814 114 111 96 1.6686816335730341 50 238 51 276 52 275 57 272 60 721 61 726 59 588 58 393
4738 1.6836003197514493 -0.27551732762383668 6.0700417134066358 247 248 240 1.8039389868916778 33 211 36 190 37 195 39 140 38 141 40 144 43 198 59 271 55 241 49 209
1411 2.0912921356149692 -1.919217771215209 4.5632486878293692 89 84 80 0.22154650041829393 19 554 17 538
6498 3.2712667795352286 -2.6881937577668769 5.1019956048043085 99 93 77 1.786114332069918 47 98 48 89 49 92
4736 1.7994759928357866 -1.9409503337109035 4.8478632022071793 35 27 16 1.6521811368369066 32 194 33 215 37 167 36 165 39 162 38 179 45 294 41 206
4735 5.4481155824297822 -3.0615364690834936 5.1034120940056598 141 117 85 0.25664485626582367 32 121 36 161 37 165 39 159
7091 1.5997075655224049 -2.0255660954662069 4.9774879629169337 53 49 38 0.54841377446588124 50 241 51 257 52 262 57 284
4734 1.7623319712094956 -1.8538491948482134 4.7596612740774216 87 74 65 1.3654278744424564 32 91 33 99 36 156 37 170 39 167 38 171 45 163 41 150 40 189 43 170 44 172 42 177 46 161 47 169 48 242 49 338
4733 2.8920069457916253 -2.4839342837687077 4.9460096845622639 56 52 43 1.5627336789964921 32 122 35 138 36 155 34 137
7089 5.0463800499367357 -2.0867372711584085 4.3905680908105822 33 15 3 1.5802802649090708 47 207 49 146 56 176 46 318 54 139 60 111 61 274
4732 1.3171880740483508 -0.76571756957461834 6.3780051077336877 243 234 219 1.6533892505694869 30 341 32 277 33 406 39 194 38 145 41 130 47 198
4730 1.0914000315826589 -2.3284870108010196 5.4145031974051729 108 105 100 1.1813720354161403 32 189 33 200 36 126 37 179 39 181
1403 1.4989477930081878 -2.4475495010669124 5.1346239527190045 129 129 118 0.20468527192700592 17 520 9 538 13 411
6490 1.9018659882802009 -2.1799345513557884 6.4708293173405238 44 36 25 1.7760932784404044 40 22 50 13 51 10 48 46
4729 5.3279640949987774 -3.2993546404133465 4.9992594213853909 166 148 112 1.2644895823403106 32 187 36 125 33 203 37 155
4728 5.4048030057083869 -3.1740612031160005 5.1139404894950431 196 181 150 0.67737123918354547 32 95 36 123 33 140 37 156 39 77
4726 2.53584092326204 -2.8560685822476759 5.3292478154737593 90 91 83 1.167299940817391 36 110 37 186 39 178 38 163
4725 24.070267246370708 -8.8395518128245509 24.902906375153915 134 150 134 2.1301183157710115 32 110 35 108 36 109 34 95 37 109
4724 2.6694130697788943 -0.74402775086451189 4.1654171609067756 0 0 0 1.8561357766501125 33 18 35 29
7070 6.1140755343601665 -2.4162312405149304 4.6618611367657374 179 130 96 0.99865285460474629 48 80 49 112 51 120 52 127 57 127 56 126
4713 2.8955452752729984 -2.1550870863329852 4.7395839736137448 47 44 33 0.56281217743389211 32 12 36 14
4712 6.5673933437151009 0.70361024924135718 7.1825453712657863 250 239 217 1.3302952547110389 39 7 38 7 41 6 43 7 42 8 34 8
4709 1.1382444480955853 -2.0329923384466406 5.539692755468951 48 45 40 1.0081012487363505 30 267 33 377 32 336 36 233 37 232 39 384 38 325 42 627
4708 1.055048161279428 -1.2542276078739529 6.5641347115056865 217 128 115 1.6620902870464831 33 248 32 308 36 214 37 1019
4707 1.6199228968851187 -1.9785318714417408 4.5011400022953172 67 64 59 1.339235230756868 33 139 32 166 33 298
4705 1.7864479964863935 -1.0664610220403608 5.8687514668190772 177 139 133 1.0206390882555219 26 595 28 681 29 673 30 685 31 739 34 655 35 757 33 770 32 667 36 693 37 758 39 788 45 718 40 719
4704 1.462560439118801 -1.7900042619611052 5.0184965549477152 103 95 86 2.0276198413704147 30 266 34 227 35 268 33 242 26 121 29 115 30 86 31 84 25 117 32 90 22 149 36 226 37 246 39 315 28 139 38 228
7060 2.2800046278957571 -1.6871028374988033 4.6061577261900331 0 0 0 0.4886100457687893 47 8 50 72
4703 1.3457251764143547 -0.61318870508374523 6.3450890431589286 215 214 204 1.4033321268738139 1 1334 24 893 21 529 33 479 32 443 36 245 37 250 39 698
7059 1.3528389839547792 -2.2981621984400271 5.3594391656228142 35 32 23 0.15633394492851876 49 97 51 59
4702 2.9696708225539949 -1.7207059600128105 4.7838958619820566 86 70 44 0.62138174448524008 33 362 32 497 36 324 37 313
4701 2.2208506051571058 -2.4041466401054232 5.0505095282149464 69 70 65 2.5028202465296698 30 420 35 343 29 501 28 454 27 478 33 467 32 411 32 583 34 849 35 855 33 846 36 263
4696 5.4285500658382588 0.29452520233260016 7.2472517380394912 239 245 240 1.8085386100570255 23 580 26 646 14 595 13 651 6 768 29 698 30 773 35 700 33 1029 32 877 30 772 33 1011 37 812 41 586 40 903 43 829
4690 3.654601251830186 -2.3010107499043193 5.25707239501748 215 191 157 1.1411307272001356 20 722 32 902 22 854 36 792
4687 1.6522484969954203 -2.0081170529267505 4.5475898062937334 70 69 64 1.9895267994958685 27 715 32 861 37 960
4686 2.0485043812539243 -1.7535732706551326 4.9259013863213728 0 0 0 2.1740312530929891 25 345 33 571 35 568 37 305 32 850
4680 2.7342119007411374 -1.2348497743680031 5.6041723373056866 169 131 112 0.80290823588560223 33 912 35 1035 32 734 36 879 37 763 38 798 45 921
7036 3.9057253600660795 0.48771158678907967 6.7096720680360775 60 69 66 0.9211578495384477 49 425 50 404 51 578
4679 1.9569042526002169 -0.58850547264445441 5.6454193707717959 213 219 209 2.1604195042621019 33 779 35 813 32 713 34 926 37 764 39 697 33 816
4677 2.4622346044826324 0.39616624671344852 6.9630664082148428 123 111 99 2.0826185715750007 30 728 35 1010 31 848 32 705 37 818 37 697 31 849
4675 3.3695554249613191 -2.5254166262715154 5.0229425642352963 77 64 45 1.9045687823352939 31 765 34 881 32 689 37 516
7024 1.494248677444356 -1.357627556859488 5.5580128347069087 158 127 111 1.411844503334541 39 1054 40 950 47 818 48 924 49 1041 45 903 43 751 44 787 51 1013 52 1109
1937 3.1180485063976069 -1.9971701061047651 4.9050017276760576 97 79 69 1.3165656854271819 13 255 6 314 4 235 7 162 11 442 15 161 3 178 12 189 1 185 30 649 31 720 34 517 35 875
4667 2.0627433077967803 -1.8534435868468848 5.0189056425290168 103 80 66 1.667662853882306 33 626 35 623 32 549 39 834
2308 1.1898061020923445 -1.3583790341045727 2.7354916016041346 185 158 129 0.84402799517936122 6 165 11 369
7022 5.86137257585992 -3.2798506256175157 5.3559559218666877 185 157 124 0.57950598444714241 42 639 44 748 50 1038 51 911
4665 5.5054918131374322 -0.13076648465238347 7.0882471298590763 118 119 113 1.2576913101335934 35 443 32 493 34 468 39 541 45 377 41 427 40 387
7021 3.0716466614741202 -1.182752859620567 5.7555865989488755 207 209 193 2.0565935962055168 48 938 49 984 50 1018 51 1018 57 923 50 1019 56 1031
1934 -1.7077648593225943 2.4437784793213009 13.345206250767022 64 69 72 0.96204728631801451 17 294 6 297 8 506 7 411 5 303 15 304 3 310 12 314 1 316 2 378
4664 2.7177276090189428 0.5018238065881433 7.0232008251377858 70 81 83 1.3881162091463235 34 377 35 414 45 284 32 484
7020 2.8569917751123888 -1.1588265561727893 5.7390065747729535 152 129 115 1.0430369379918187 49 591 50 1007 51 991
1933 -2.0874482234550782 1.7269182376702223 13.486846868685555 111 52 31 1.6823733661721827 9 302 14 211 18 220 6 293 13 206 19 142 4 201 9 143 8 135 8 288 13 140 14 152 17 138 11 208 7 291 16 316 10 299 5 299 15 298 3 304 12 564 1 312 2 288
4663 1.4186629515961104 -0.7139194355300098 6.794733183928928 0 0 0 2.8571802696083592 31 448 34 811
7009 1.7510971661356869 -1.8634484621734628 4.7653420167839133 61 53 42 0.13617113373317019 49 915 50 916
4652 4.1291494224586049 0.30264013024384007 6.9298880985183873 0 0 0 0.854373831351809 30 333 35 576
7007 5.9199351162719021 -3.3139392959982632 5.1918379048134051 88 64 30 0.16821683895665887 49 903 50 863 51 872 57 1160
4650 2.1797473028969194 -1.7763572108054895 4.5446064967774475 0 0 0 1.8260821394509947 29 254 35 385
4648 1.458967161489213 -1.5872987921498118 5.2953106786230473 143 109 90 1.3850174448298904 32 314 36 520 37 543 39 448 38 490 48 385 49 352 50 359 57 678
7003 3.2283161320132212 -1.6413587582121585 5.2115023295599769 128 146 120 0.72215144772289153 49 792 50 849 51 1009
4646 2.8761516657824888 -1.6843836867763269 4.8982440276319501 121 105 89 0.61113962471423322 33 726 32 311 36 663
2287 0.88748579189654264 -0.055542343009352152 2.9518895282460584 216 214 198 3.1302127410380187 17 94 11 138
4644 1.5825372908141317 0.37245532645289059 8.5347145861407476 82 94 92 0.71186666769515083 26 324 33 222 32 284
4643 11.427739785285638 0.85534099230253391 12.839051818253596 193 168 137 0.34075418959557352 34 290 32 283
4640 2.9821507450821807 -1.1287483382137393 5.7198609770920958 205 155 138 0.34276634174330289 34 280 35 242 32 275 36 270 39 288 37 277
4638 1.9329437911628056 -2.1499360223744732 5.0829228078779929 29 25 22 0.31182812923992309 33 218 35 134 34 135 32 238
4637 2.5933451255377693 -1.1579593561308557 5.6749268289781343 177 119 103 1.4138642395611525 35 326 32 221 36 267 41 315
6993 6.05036358146896 -2.9845450777030167 5.233842221817441 192 174 141 1.0001596961359447 43 601 45 651 50 777 57 993
1906 2.3981108217088787 -1.2986556888883705 4.536889523289843 168 123 109 1.2727305036754317 6 128 4 94 8 88 11 78 10 120 5 82 3 1118 12 1073 15 1062 2 1062 1 1117 16 1145
4636 2.7489747342966226 -1.1789748007608936 5.7036789734993869 47 20 16 1.6086372618129658 33 234 34 236 35 227 32 220 36 198 37 213 39 193 38 256 45 269 41 237 47 201 48 318 44 143 46 203 45 147 50 545
2274 -2.106948560683763 -6.4767283383447882 15.717913047102597 113 94 76 1.4226131362167767 9 193 11 268 8 260
4631 2.5280094886223066 -2.6468305502142266 5.1927533004671487 33 34 27 0.85786533187297265 33 205 35 104 32 186 39 276
4628 2.9119975318975162 -1.7370995062994343 5.2206684818923881 110 90 79 1.9316799935973035 33 157 35 233 32 152 36 154 37 114
4626 1.8013931359991779 -2.558901984011809 5.1103202411139046 60 60 48 0.79866271423447976 33 145 35 168 32 128 36 128 37 153 39 130
6982 3.309996389892119 0.5051897137471093 7.8131501071163845 170 137 126 1.4843285370059778 48 720 50 710 49 736
4625 4.5678770411078071 -0.50426367627322521 7.2921477814475475 115 111 108 1.3162169301487774 33 90 35 88 32 104 36 103 37 143 39 195
4623 4.0223653595985125 -0.43062673237204446 6.8800591387534764 25 25 25 1.8680219239899034 33 52 35 46 32 81 36 76
4622 2.3613401952690243 -2.171776935630811 4.6435639176729548 36 37 31 0.85235700946927206 33 66 32 70 36 93
4617 2.3032783067066953 0.53344867463665224 7.1739803080299076 55 65 67 1.630935047303578 33 9 34 15 35 15 26 20 29 14 32 15 36 10 37 9
2258 2.1664485143772443 -2.2034838258193634 4.5256854078296689 55 60 58 0.9209171015487958 13 904 8 914 11 829 16 1072 10 1019 15 1382 3 1211 2 1011
6972 3.0525569578495664 -1.9828063788786472 4.8178487391782223 146 146 128 0.48824822335164236 48 530 49 774 50 651
4615 1.9544736368289735 -1.5785876336574194 5.3085122398347933 196 147 132 1.4234750212781089 33 3 35 6 32 4 36 4 37 4 39 2 38 3 45 1 41 2 40 5 43 5 31 4 34 3
6971 2.6272530523957935 -1.8519690470919501 4.6545213994594308 167 170 149 1.4421599762606732 50 647 51 737 57 815 52 743 56 555 54 416
1884 3.8211766406117218 -2.0829704165329468 6.6865600510942542 108 94 73 1.1629494631461639 14 825 13 777 4 798 3 152 12 126
4614 2.8778424554366748 -1.1754265850487327 5.8411058662106878 158 123 118 2.3249421165004476 14 790 21 470 13 857 6 865 8 844 11 870 7 879 10 948 11 1029 5 882 3 1383 1 1127 2 1051 2 1057 29 326 26 241 30 276 31 341 34 314 33 352 35 330
4612 5.7603008144182857 0.32858927277695005 7.3010335761490754 31 31 30 1.1415659589720453 25 562 30 770 28 511 29 517 23 619 36 728 9 705 19 603 37 814 31 670
4611 1.4146417152068933 -1.3551285381010552 5.4881526550928177 117 97 84 1.5670717791287352 33 165 34 165 35 119 29 146 30 119 31 143 26 229 32 94
4610 1.0756998294441609 -1.6646173108777793 6.7168031311490655 147 125 110 1.5443063486486523 27 496 30 455 31 491 34 362 35 372 32 302 36 207 37 210
6966 1.0999563150814746 -1.5486093611478833 6.7787768350808379 168 134 107 0.56884366094232752 49 634 50 594 56 646 54 621
4609 1.4143241731994429 -0.26773899756627695 6.6483658851559237 95 106 100 1.1734997736830308 19 721 22 652 18 647 20 581 24 482 23 448 25 810 17 637 9 529 14 521 13 630 4 565 8 622 11 629 7 691 16 1017 10 800 5 707 3 592 15 416 12 556 1 635 2 519 2 1323 27 693 28 325 35 819 34 911 33 1070 27 603 31 614 32 924
4608 3.0301995603841867 -1.7358704615124652 4.8014089924928092 171 154 128 0.99545004521636782 30 775 31 723 37 869 36 519
4607 1.0894097656840649 -0.89569864117014675 6.9691032518360165 23 11 2 2.2816077935397505 35 1072 33 541
6961 2.5242434441581945 0.0028214215396410252 5.7887810505098996 100 95 89 0.67895617184004264 49 320 50 585
4604 4.6573994490086363 -0.52783064739379482 4.4501870715084948 0 0 0 0.87258501289142076 22 353 35 143
4603 3.3400859973050614 -1.8666194621851584 5.096285361617686 232 208 168 1.4324951251716831 35 26 33 40
4600 1.4882707396681714 -0.16667441032131142 6.6775385691404185 85 93 93 1.8228914906234535 18 363 22 318 24 229 23 198 14 508 5 781 28 137 35 293 33 308 17 681 25 493 30 533 31 343 29 277 32 199
2240 1.6955133871081192 -1.5641315401716926 5.0406069155977464 203 168 146 1.1073915050361223 17 613 8 715 11 725 7 751 10 744 5 733
4597 1.3559680980347981 -2.619250180303577 5.4957855524460033 47 47 42 1.0709369849015691 34 200 33 133 26 236 29 364 30 242 31 370
4596 2.9321258497126159 0.79940569628576152 7.0320003344990543 182 203 196 1.7679593173136487 34 694 35 978 33 1086 19 854 22 615 18 712 20 633 23 633 26 639 17 725 9 743 14 722 13 740 6 746 4 663 8 760 11 737 7 827 16 957 10 849 5 761 15 993 3 1245 12 1010 1 1308 2 872 27 541 28 448 28 523 26 412 29 655 36 483 36 644 32 895 36 720 39 1039 38 642 40 913 45 883
4594 1.5783575272592789 0.39722102556527311 8.0463161375434407 85 98 88 0.18923406336623896 34 899 33 1092 32 884
4593 3.3223175923080048 -2.8873004395554283 5.1400555365799176 156 130 104 1.2282415337107118 35 971 33 1089
4590 5.6517942975456714 -0.69573299447604142 7.1972429057752061 85 88 77 1.0835250385117374 34 669 33 1076 35 816
6945 1.7070071435431355 -1.9586475450230783 4.7971848654034313 43 39 28 1.4999750001746153 49 485 50 508 57 706
4588 1.9993800322406088 -0.58616832638903915 5.550777055561027 215 221 211 1.1265183739422227 35 1056 33 1047 37 765 36 900 39 806
4580 1.6406098006262668 0.35088755593011328 8.1184912579242798 47 67 76 0.6552614337945486 34 728 33 1007 32 766 36 857 37 1008
6936 0.87428033677279315 -2.5440680348720206 6.4469626788061776 113 103 94 1.0806702675367643 49 694 50 447 48 593 51 458
4579 6.2101950628293423 0.85773466910442686 7.3228322541660456 242 234 222 1.9104589292171437 36 132 39 205 37 131 38 277 45 285 41 305 40 393 48 914
6934 2.1501303472316309 -2.6320061761214069 4.9237519826172464 0 0 0 2.4589400422698517 47 371 48 390
4577 1.3204069283903568 -2.1672309700433425 5.0748171773123776 96 95 91 0.40188356434797229 34 880 35 884 33 983
2213 1.6385241388782232 -3.0649838174481165 5.5599279998512854 103 95 83 0.17263776817224069 13 611 8 469
4570 3.1008687558301298 -1.6669579908595633 5.0293974492737936 110 95 72 0.66270354420980881 35 915 33 941 32 758
2212 2.6106180921899917 -3.4847946801654688 5.9527177906751039 129 120 109 0.57123159065973239 4 537 6 598 8 461 11 476
4569 1.1846218914728377 -1.3226734215424334 6.4799849701372318 181 151 123 1.1567549026092039 33 937 37 1025 39 780
6924 2.5134565688246142 0.087566249139719859 5.8532057767362344 87 87 75 0.45948007911638011 49 235 50 402
4567 1.1633888798687522 -1.2451015321849479 6.8164863530568987 234 186 172 1.7445866419881391 35 1036 33 929 36 877
4566 1.4994590425902101 -1.6758364562110186 5.2692135451724686 109 81 67 1.3651529495206778 34 834 35 929 33 923 32 849 36 787 37 1060 39 902 38 588
6920 3.2314072582129185 -2.1035373424955948 4.7940664071448031 182 198 171 1.4154116331597475 49 234 50 390
1833 3.3280910555325303 0.024394551174128514 6.6405869823373003 133 127 107 1.9034422333134129 17 685 13 700 6 987 4 654 8 964 11 767 7 644 16 726 5 1011 3 1369 12 1231 9 859 29 563 30 536 31 619
4563 3.1675405471137883 -1.672861822905447 5.1678446441266912 129 113 87 0.6817505733988688 35 913 33 915 32 799
2204 2.5512204025713179 -3.2767521826313724 5.3805219838095022 145 135 126 1.250334990892441 4 356 6 412 8 397 11 399 7 265 16 517 10 174 15 669 12 679 3 678 2 654
6918 2.9259391624756237 -1.6570434992638674 5.3728052083835616 110 129 102 1.5746608149988202 48 553 49 619 50 373 52 387 57 622
4561 1.3132469775524751 -1.6381412401619908 5.430491767765341 130 104 89 0.069767482588009758 34 840 35 924 33 910
6917 1.1192235384529492 -1.5069255706613669 6.7288162065946029 159 128 101 1.6827343283720242 49 371 50 372 55 228 53 303
4560 2.1701219089970021 -2.0802584171782326 4.4604836703378963 50 56 46 2.7206709349942053 35 965 33 909 36 835 37 958 39 652 32 860
4558 1.2477035259518694 -2.0056717847274488 5.0522682955195899 74 71 64 0.37109457698334569 35 867 33 905 32 786 36 838 37 790
4557 1.2964181696571977 -1.9117242081374179 5.1087208996870119 81 80 72 1.2959644381123026 34 769 35 870 33 899 32 332 33 490 36 237 37 219 39 365 38 322
4556 3.2219270020732838 -1.8715061368169053 5.1271151557527039 100 85 61 1.6248288616571556 35 719 33 895 32 947 34 751
6912 3.0463701852634624 -1.9536499771148386 4.9452470342519979 115 113 90 0.72351375407417851 48 209 49 472 50 338 51 238 57 302
4555 3.2940393784446442 -1.9631182693102582 5.0708645039122793 0 0 0 1.6228218231524427 30 378 31 415 35 921 29 430
4554 2.7722974945704615 -2.0035167908412816 4.7651695097828251 48 48 40 1.4413619601025116 33 883 37 842
4551 2.6102434073475416 -3.1399716212426725 5.6414134790644832 126 124 108 1.0539924817177044 30 404 35 851 33 869 34 549
4548 1.3534014795763043 -2.1734640758680284 5.0786986689372711 51 48 45 0.64950475158376175 34 775 35 944 33 857 32 744 36 600 37 598 39 676 38 749 45 611 41 515
4547 5.305724775822342 -3.2475419736076185 5.08511850342156 129 116 81 1.4042391163939625 35 835 33 849 34 742 32 728 36 595 37 795
6903 1.1048343443039119 -1.4342804962707665 6.884646467121911 238 233 209 0.76051836532233796 49 216 50 299 57 382
4546 4.5965986795574878 0.48088197418777617 7.9995536017149727 33 42 39 0.8572187126555092 35 798 33 838
4545 2.7165539949018123 -1.4404311288841238 4.5648160707072245 181 157 123 0.99125814000536872 35 547 33 837 32 643
4542 3.3046019638816406 -2.0594115553742971 5.1592041706694491 136 128 109 1.76396609780888 31 514 33 824
4541 1.3223468420346334 -2.0550420053967464 4.9767316366682888 73 70 65 0.73231894354966209 34 882 35 879 33 820 32 540 36 560 37 835
4540 1.1719043598418977 -2.2255356165365376 5.2326888240049687 108 105 100 0.44435775586711301 35 947 33 818 32 581
2182 2.3890756821768977 -3.2568741117654327 5.6322216028945977 78 75 70 1.1044297839579096 4 173 6 185 8 168 11 182 16 365 10 410 5 266 15 433 3 433 12 350 1 470
6896 3.3139886963303544 -2.4198497652590971 4.9221725597748103 183 186 165 1.4935302656923122 48 238 50 255 49 456 51 285
4539 3.4090518397740044 -1.8533490778152784 5.898672058742652 130 113 87 1.589941011880259 35 709 33 815 34 535
4538 1.5289886897988505 0.53058294539776274 7.8514287379633423 131 169 191 0.38550891875516613 31 852 33 813 32 707 36 863
4525 1.4804478761713697 -1.6358704578868539 5.2639338592607192 101 69 55 1.985064200719945 34 763 35 764 33 746 32 559 37 729 39 744 38 623 45 586 41 562 40 825 43 616 44 537 46 674 47 537 48 534 49 608 50 642 52 623 56 544 60 404
6877 1.294626349976427 -1.917522378534344 5.6494694293782617 85 56 48 1.6438365693869676 48 240 49 259 60 373 61 459
4520 3.1239212260554812 -1.7341594774676414 5.3487595633033145 141 124 96 1.3766237562309633 34 537 33 727 36 531
6499 1.296524115759621 -2.1023457339318861 5.0810248586936577 35 32 27 0.93093836951999898 47 93 48 99 49 133 50 143
1412 2.3145818003709295 -2.0759688985993132 4.7016213051050499 95 95 94 0.73237545346604749 19 550 17 542 14 530 13 541 6 590 4 524 8 547 11 1025
6513 1.1430722322892968 -2.0565400157464513 5.6106443016962979 66 61 55 1.5785361491072645 48 161 57 275 51 480 56 274 54 269 61 294 59 311 49 176
1426 0.97281921223140355 -1.3972409453511225 7.5302936083695844 234 155 138 0.53536575131178166 18 618 17 628 9 624
1867 3.7727107757865039 -1.8026815201610114 6.6156304375752457 210 155 133 2.4140580878186735 17 644 14 615 13 540 19 682 21 517 23 731 25 523 28 613 27 523
1873 4.885575052294886 -3.3111625544151937 4.7608475506320787 218 194 159 3.7216005504561291 13 98 27 96
6588 3.7302149554047062 -2.550402229404749 5.2505131607533464 91 87 76 1.9415381023547875 47 740 48 578 49 490
1501 4.8709492522093614 -0.44670405960086129 4.7375007908133826 104 108 109 2.0693911925314952 19 307 17 479
6590 3.040811438531632 -2.1694550654624645 4.8394269291788845 86 91 68 1.812137029307616 47 639 48 583 49 661
1503 2.0759376979309123 -3.0290614676169718 5.420755450662563 148 146 134 0.16559171244137105 19 883 17 811 9 787
1891 2.4899114441287713 -1.6225601669245877 0.95339684990356333 0 0 0 0.075328693978490735 13 71 14 99
6234 3.0859630842060857 0.80301782998940896 7.2942929605848166 149 144 114 0.8706303464276538 42 197 44 145 46 309
1520 1.2645885768831606 -0.49491182683016771 6.5878110307808706 106 122 119 2.0554672892718329 18 201 5 564 16 414 10 316 5 214 12 1261 3 1248 16 1253 11 313 35 43 34 52
1894 2.0630973458987354 -4.4390313564604691 8.0793389883898907 159 133 120 1.431911331254708 17 80 11 91 8 101 13 69
1522 2.9674583328419057 -2.3579294572099334 4.6807373250346211 33 35 34 1.393808859692679 17 104 19 118 9 129 14 144 13 157
1929 2.3895414519272946 -3.6369765838926464 6.2328137085515758 126 114 102 2.3358558597134018 9 268 6 258 17 828 4 247 8 593 6 476
1931 3.0704751567701933 0.5358310386779247 7.6235944243994727 36 42 37 0.9808544659240086 22 293 24 287 6 283 11 406 7 393 16 409 5 377 15 528 3 420 12 456 1 430 2 367
1932 3.6644155610513884 0.43973249943526233 6.662477893053472 89 99 101 0.54290515494830005 13 234 14 282 6 284 8 350 11 373 16 725 15 757 3 772 12 718 1 748 2 730
1936 2.5675581266504532 -1.3492250521837528 4.7393014820798047 145 106 94 0.34202409134291861 13 306 6 308 4 282 8 195 11 174
1943 0.70491745912871173 1.7702870331468767 9.5772919142599857 106 182 221 0.77935226561372861 9 356 13 363 14 379 6 365 4 365 8 361 11 363 7 553 16 436 10 517 5 562 15 426 3 426 12 561 1 624 2 533
8152 1.4985027332710612 -2.522212625493268 5.2937159681657793 73 70 59 0.6996263119292323 61 230 59 200 58 223 55 190 53 186
3065 1.7209665438747386 -1.2477450402544543 5.3183112213499015 131 102 94 1.7225200716688649 5 721 9 814 10 822 7 889
8153 1.5155915299365359 -2.7598147263420425 5.6042005565955897 122 113 104 1.2127511948668561 61 186 59 201 58 148
8154 1.0031838209600137 -2.6459253759016601 7.366856990098122 68 66 54 0.50275210529200887 60 327 61 348 59 204 58 259
3067 0.91594168548219124 2.2601041891161424 9.4594630257406038 182 217 216 1.2911619046878899 5 960 11 939 15 1341
8155 0.89514498046774127 -2.6228502312236821 7.335960694667647 24 10 9 0.7126349707970685 61 213 59 209 58 138 53 110 55 57
3068 0.69145294018596803 1.980377540245835 9.6851307302509806 195 211 203 0.56774970176219919 4 817 7 823 8 726 11 746 15 1364 2 1304
8157 2.43815523002554 -2.7004548194441176 5.0656239648126657 122 116 100 1.4326249955073724 60 363 61 297 55 504
3070 0.49894181141018845 1.7018853854680924 10.003665629785132 129 144 146 1.9353557957530101 18 694 19 742 8 762 17 729 7 939 15 1345 15 1346 18 796 24 903 19 859 25 695 17 860 9 747 14 856 14 857 13 929 4 849 6 737 8 897 11 752 7 938 7 940 7 941 16 1333 15 1347 3 1251 12 1344 1 1024 1 1032 1 1261 17 730 2 1290 2 1292 2 1316
8158 2.2744164549447499 -0.73129292710119809 5.4592536267821474 221 222 208 0.70890631581233077 54 177 56 161 61 112 55 115
3071 2.3130976735924191 0.3780733038966268 6.6970330360170269 52 63 60 1.9939762015429348 4 577 10 821 16 927 5 505 15 1237 26 626 22 882 24 727 3 991 12 985 1 753 2 888 31 351 29 712
8159 0.87911664283759317 -2.1291260791678344 5.3849502318676619 35 36 30 1.3510281542706002 61 200 59 224
3072 3.7063715459454003 -0.54976656793464751 6.4297585474279355 36 34 28 0.76086943315455846 24 526 25 598 21 532 27 566 26 506 28 548 29 543 30 751 31 745 34 913 35 588 35 817 33 563 33 1074 32 938 22 509
8160 0.8399492726404354 -2.3558940797829431 7.1814440397553723 55 46 39 1.6992678763312892 60 205 61 198 59 225 55 220 53 151
3073 2.5342819578115066 -2.6574196381956678 5.2009547732490162 57 59 56 2.0308052874256521 19 776 24 744 16 825 10 1126 15 843 22 779 24 777 17 751 13 775 6 574 4 808 6 872 8 805 11 842 7 847 16 824 10 973 5 934 3 1283 12 875 12 1121 1 1182 2 1017 2 1041 3 1027
8161 1.6916122117824779 -2.9612285544917154 6.1570631525237234 72 71 67 1.2480865265060046 61 217 59 226 58 299
3074 1.4879530006316288 -1.8211169658410038 5.1662108148127164 59 54 47 1.9240361379377384 10 709 15 776 6 515 13 436 4 369 8 452 11 512 10 331 5 336 3 914 1 352
8162 0.94589817197590209 -2.5168526323253699 7.0671062800045865 80 77 68 0.52104618552580018 60 220 61 235 59 235 58 185 55 215 53 215
3075 1.887136196477178 -2.9864791035242608 5.3956681780735076 110 107 96 1.6336235551832647 4 117 6 124 8 119 11 124 7 190 16 171 10 183 5 188 15 431 11 392 10 268 3 189 3 439 12 175 12 363 8 414 1 200 2 170
8164 2.5311036416449362 -1.7010533000036152 5.1969140535885732 142 153 127 0.56087780431637668 61 432 59 240
3077 1.6107065144815145 0.38340409222117039 8.1125472897786999 64 80 78 1.0109144985936496 13 532 16 1216 18 472 26 417 22 921 18 692 20 774 24 900 23 577 25 556 21 573 17 869 9 868 14 682 13 974 6 942 4 875 8 923 11 1006 10 1072 5 961 12 1380 2 1188 27 527 28 508 29 347 30 433 31 352 34 329 35 406 33 354 32 353 36 286 37 293
8165 1.6206880406187514 -1.5972570150613792 5.2656481597610973 148 109 92 0.53518687892190275 61 181 59 242 58 228
8166 0.99722581465663018 -1.6709307961148616 7.1978116088374762 221 129 105 0.66715507611635827 61 282 59 244 58 183
3079 2.6603185005153134 -1.4508810925729814 5.2590580965756857 97 71 66 1.5571468264244417 5 73 26 70 7 63 16 59 10 69 15 67 3 63 2 64 27 58 28 72 29 137
8167 0.99365906175354068 -1.6716397706496413 6.9915673867778168 129 89 68 0.49362028428497268 61 268 59 246 58 181
3080 3.7444586941995621 -0.60689090838657966 7.324018345353899 140 115 89 1.399931190984425 4 621 16 983 5 725 15 1294 15 1296 7 744 11 706 16 985 10 846 3 805 11 533 8 534 1 827 1 1336 2 929
8168 0.94704279135369884 -1.8956929167127103 7.1446979195700813 55 41 28 0.22376809891193641 60 378 61 403 59 253 58 354
8169 0.87872929103243824 -1.9997195982211213 6.5179748332658267 57 46 40 0.79862787125411194 60 369 59 259 58 247 53 195
8170 1.1800189185231229 -2.2579999344647081 7.5723511027136725 30 23 5 0.99406051409521634 61 413 59 262 58 203 55 278 53 194
8171 0.99980199909461875 -2.2652525418216078 7.3566113095785308 36 26 14 1.1409018221264176 60 248 61 135 59 264 58 133 55 153 53 98
8172 10.244750996999066 -0.17617961719865616 5.2005250314465981 135 137 119 2.0165705191443446 56 601 59 277 55 377 58 241
8173 1.4172005445575058 -0.60224913264540803 7.2321759273364208 191 134 107 0.7380010346121878 56 355 59 278
3086 -8.713302694402115 2.934671210751282 25.837865383351289 109 114 108 1.3574342956293906 13 290 15 295 5 295 8 284 10 367 11 274 6 287 7 656 16 314 3 288 12 309
8175 2.7466975851123729 -1.4563906083060318 5.0142652921387896 168 187 161 1.4866978225298839 60 234 59 284 58 234
3088 2.8902809632177093 -4.0690072574926752 7.2392475122185491 159 132 113 1.7614904448944024 8 254 2 406 6 256 15 428
8176 1.1571305599383577 -2.4365980670238931 6.3835503818440813 76 72 63 1.2468086852431359 61 291 59 294 58 189 55 219 53 212
8177 0.9942308367778141 -2.488325716919602 7.3856106752950597 105 96 87 0.55472641055007554 61 295 59 301 60 276
3090 2.3724044550645669 -2.0677218268340911 1.6730735940624402 153 131 107 1.6014108229561366 9 716 1 574 3 695
8178 1.0338751608130501 -2.4940768681474155 6.8322310955297239 81 72 65 0.76682759297730163 61 305 59 306 55 221
8180 1.7089333716084922 -2.3278897974753883 4.9734825634621505 81 78 63 0.88473383952274887 61 292 59 314 58 515
8182 0.93895135664799334 -2.7967623263833405 7.1477067906912994 136 123 115 0.35675909126594274 60 308 61 334 59 338 58 297
8183 1.8046300516326272 -2.9266006151213833 5.4360407577792484 114 107 89 0.92728441342244095 60 303 61 336 59 339 58 207
3096 2.9301425146771294 -0.62888892478415526 5.0693323457258375 208 208 196 0.98097673392663276 13 987 15 1256 2 1262
8184 1.1508188157971919 -2.7102894731195772 5.8184891612777898 90 81 74 0.94869887045494661 61 532 59 342 58 522
8185 1.0473574823979912 -2.6085696481510334 7.2825010287472072 78 74 65 1.4316938757759512 60 282 61 351 59 347 58 316 55 300 53 278
8186 1.5694380311784053 -2.7247284716408284 5.4404685621975144 106 97 90 0.63859070896924297 60 312 61 326 59 360
3099 2.2916559975227515 -2.1867220946154724 4.8514119474344763 79 82 76 1.7568073783281573 19 758 22 760 18 718 20 753 24 863 17 665 9 738 14 743 13 821 6 829 4 728 8 789 11 824 7 578 16 1098 5 850 10 848 15 1192 10 1022 16 1065 5 916 15 1178 8 869 3 1097 3 1224 12 1188 12 1204 1 1008 2 1167 2 1168
8187 1.4642851421417549 -0.19919093935082868 6.5197095840204264 225 218 200 0.32504442728562338 60 243 59 385 55 243
8188 1.2618540241181442 -0.73715692358303098 6.2314060931734891 211 146 123 0.53409295834230697 54 580 61 392 59 394 58 330
8190 1.3024528404766316 -1.9379789112945769 5.6857391112950886 73 45 34 1.5010131843311079 54 156 61 210 59 406 58 286 55 204 53 139
8191 0.81454405085157899 -1.9143653768424553 6.5350831971717547 55 45 35 1.0220656599800191 60 371 61 406 59 409 58 267
8192 1.3052902326495475 -1.6454770786880513 5.715234274705165 148 100 80 0.52417916877043491 54 394 56 683 61 427 59 432 58 374 55 415 53 313
3105 1.0258271855842815 -1.5758148409380341 5.7933697304626044 204 184 151 1.1266290535202534 5 46 14 40 3 40 12 41 1 39
8193 1.1000743051312887 -1.5864597057165777 6.6757013265068181 111 83 61 0.4207371199585988 60 649 61 440 59 441 58 369 55 412
3106 1.6030050984539419 1.1039267936236272 5.1286726476180498 0 0 0 1.6995079737397689 4 367 7 25
8194 1.144605183134678 -2.1636045481032604 5.886032665537388 0 0 0 0.36186820961592941 54 296 60 504
3107 -6.6616457571636234 0.34489018195141963 26.887479356932552 74 71 63 1.0812068769602359 9 38 10 41 16 38 17 26 13 37 14 43 7 32 11 31
8196 0.9103952153893039 -2.1875298827700509 6.948816242385691 45 41 32 0.57258026739951629 57 690 59 457 58 478
8197 0.99754762610950054 -2.7409269065862998 7.3836129057912547 82 73 68 1.0257728998518556 61 612 59 486 58 450 53 281
3110 5.0302656408894038 0.64376912747125148 8.5325938206651522 28 38 39 3.6340238829318241 11 284 3 110
8198 1.459106342207237 -1.7899424820402028 5.4358600911415209 53 39 30 2.4277172951758352 57 211 58 349 59 489 61 397
3111 -0.73695019375958559 -0.33536583942751336 10.416875043903268 200 179 147 3.0978761583660837 16 66 22 34 2 66
8199 4.2577460867475558 -3.4524338151874816 7.5951722904292218 88 81 69 0.29234327250361197 52 588 58 419
3112 3.1746336335017395 0.21191687130206641 6.1601470195407657 131 113 105 0.80674147142838182 24 204 3 150
8200 3.0372041779485461 -1.6381550723709091 5.3302579185061818 79 82 58 0.63795955858013265 61 865 59 500 60 840
3113 3.8183568932936143 -2.1041643993197767 6.6804089948676237 0 0 0 2.4581315059298792 15 122 23 675
8201 2.4692536243955185 -1.2737931182938658 5.3663851074053692 136 116 94 0.3819890040083182 60 435 61 471 59 511 58 438 55 408 53 333
3114 2.0168929985379904 -2.1571746205335218 5.4417724535787846 0 0 0 1.9161161732336642 5 89 6 230 7 86
8202 1.8419860460689996 -1.1560834159115438 5.5873665878135466 178 131 109 1.6837003434140489 60 436 59 512 58 323
8203 1.8276747440020005 -2.8176811713298129 5.1377761942173432 149 133 108 1.8652298886174661 56 313 59 524 58 454
8204 0.84622893687673684 -2.7714518395693677 7.1639481070467532 132 126 110 0.52976674791821132 54 551 59 525 58 458
8205 1.7836902980117939 -2.7313177402383446 5.3026567800605857 99 91 78 0.61586062465449498 61 358 59 533 58 443
8206 9.8732152528581665 0.64638184748758387 5.829903724058572 81 74 58 0.10336381077747572 60 629 59 534
3119 3.791074912202022 -0.98112491241041311 6.1572892419950103 217 194 161 1.5447780187402986 24 75 27 111
8207 1.0288615816981608 -2.9178381986260526 7.3974577923546923 95 85 73 0.69549341977240875 60 497 61 538 59 546
3120 4.3243544568471721 0.35518741985146624 6.7334999085597662 44 49 52 0.91542149500311754 7 222 8 194 3 224 12 159 1 210
8208 1.0045955256819668 -2.5185843425723933 7.3377533258273964 64 60 49 0.24098899740723692 60 639 61 568 59 551
3121 1.0614633430189728 -0.72266631507585766 5.6236145501407648 216 194 160 1.4727732138058043 19 73 3 230 12 222
8209 0.8757824675416449 -2.4590311297416321 6.8417258309607858 94 85 78 0.3783816999847705 60 589 61 563 59 566 58 536
3122 1.0708960013495799 -2.0492920567287638 5.6297791035820461 155 150 132 1.7121558712433924 5 250 10 251 12 237 2 322
8210 0.89388319724189558 -2.4897368227335899 6.8758891839614265 66 55 49 0.608285642890671 60 638 61 636 59 567 58 548
3123 2.7936839119635812 -1.7518487894177057 5.082921148600172 84 61 53 1.9240918989940032 8 343 13 439 3 254 12 378 1 268 2 329
8211 0.97657086619618083 -2.6540836021532259 7.1780693103644557 77 68 63 1.0241869415363181 60 473 61 520 59 569 58 442
8212 1.5073149719422831 -2.5656310761884074 5.5493833889679109 53 53 43 0.8467091288259686 61 559 59 570 58 480
3125 3.593078438771006 -1.3044782441557918 -0.30026810086024758 0 0 0 1.1562758155460653 7 476 8 170
8213 0.93378798861093404 -2.3505147976682998 7.1912682504168108 58 49 40 0.99397318985156036 54 528 59 581 53 381
8214 1.0332567749417052 -2.452058296307011 7.4306947751553611 119 111 98 0.51837286348465283 61 748 59 587 58 519
8215 0.9115059683627198 -2.4101667486111835 7.057495422574438 82 73 67 0.33122440237821282 60 640 61 580 59 591 58 492
3128 2.7866973275034557 -2.3998916663196379 4.3976508201693711 47 51 50 0.42927659405788721 10 273 3 279 12 281 1 288 2 253
8216 0.87485870658430454 -2.4534119490068571 7.1276806335889864 91 87 78 0.50771607259222284 60 533 61 573 59 593 58 489 53 338
3129 2.1103480271970683 -1.9079843283279243 2.5335166314741691 0 0 0 1.4628189843133352 5 169 16 293
8217 0.95306692579596752 -2.4295531406190416 6.714459871746171 42 35 27 0.12278399420675397 60 595 61 637 59 598
3130 -1.1218321463616168 0.12084344309654706 10.105625008091963 0 0 0 0.47603743632220274 7 201 19 48
8218 0.90980679369122963 -2.0821523463063549 6.8444650131752711 55 49 37 0.70028729189611327 60 552 61 593 59 603 58 594
3131 -0.17987030918572586 1.090632607968945 10.83180407768805 50 60 61 1.1195367523714845 5 291 7 287 16 296 3 299 12 416 1 401 2 285
8219 1.1803691667814078 -1.9710167610016642 5.2707115494262258 38 39 33 1.0753263508385926 60 419 59 606 58 584 55 197
3132 1.1941576548973338 -1.5986667656217302 5.4769517050482062 213 193 160 1.4131833175350277 5 227 16 325 3 302 10 529 12 262 1 326
8220 1.4348109093670853 -2.4529621226924481 5.131974068025464 127 121 109 0.41571494383150687 61 562 59 607 58 500
3133 -0.86886228788243547 1.447666687022134 11.165524235073844 40 53 48 1.1503067581453954 14 108 3 305 12 406 1 393 2 289
8221 1.1514747341512304 -2.071299589168802 5.495862604863448 45 47 34 0.37864412765288047 61 600 59 611 58 598
3134 4.2694013700795681 -0.21645230085227452 7.7155033606765135 78 75 67 1.2621199968678489 5 198 3 336
8222 0.93282787316466365 -2.1826856181966439 6.9342569534823184 68 61 53 0.50899840864043289 60 684 61 735 59 612 58 568
3135 2.5644994537385868 -1.611044518267374 4.8884556307343683 140 111 100 0.38391835659056778 10 338 15 591 16 461 3 354 12 372 1 350 2 332
8223 1.1940533048155562 -2.1248860381863763 5.3077399110873102 61 63 52 1.0659647809053119 50 871 59 618 58 509 51 881
8224 1.0593361695861261 -2.3677645461456134 7.4966847405436861 55 48 32 0.65894907374827338 61 585 59 619 53 380
3137 4.0709962953916152 -0.9519531372576423 5.888141033409557 121 131 123 1.6243254400759357 7 378 3 404 1 362
8225 1.030411853801491 -2.7431506224268221 7.2856403970761354 45 35 33 0.4669867790592504 60 480 61 513 59 623 58 462
3138 3.6111973601945895 0.42384792778615538 6.9363803010226279 26 33 41 1.7768151329089512 11 281 15 529 3 418 12 454 27 270 7 669 25 356 30 261 34 374 35 410
8226 0.98736593830171793 -2.7883537019839242 7.3222006401732909 116 106 95 1.3476357108538068 61 782 59 626 58 306 53 393
3139 1.7918489045362342 -0.72055026435898994 5.7798935719575688 244 239 220 0.88195437359355222 7 353 14 704 3 423 12 420 1 365
8227 0.94486977087693935 -2.734048066577266 6.5950619972336524 72 63 57 0.43208915247289903 60 738 61 792 59 637 58 523
8228 1.6752995083339963 -2.5254628089474962 5.0483342963632198 202 196 180 0.4192589394273939 61 633 59 643 60 759 58 485
3141 1.9438112292498415 -1.9471329701418192 1.8712790949310005 137 118 94 2.6736868197032275 13 582 3 445 1 733
8229 0.94487104958309054 -2.5505315459598386 7.1667499401121209 38 35 26 1.7104446851827142 60 927 61 1102 59 649 58 547 55 570 53 479
3142 2.3051017978941992 -2.3667273221824856 5.1641330433923516 78 79 77 0.49495680078964305 10 582 15 626 16 629 3 462 12 521 1 481 2 591
8230 0.93415271271049738 -2.5954321514239749 6.8256071812981354 83 74 67 0.60792959865185703 60 600 61 645 59 658 58 540 55 458 53 443
3143 1.6640869578582191 -2.3648032499132818 4.8961987486993337 64 64 54 0.79973617820863108 10 482 15 507 16 479 3 465 12 525 1 256 3 241 2 490
8231 1.8039581279607761 -1.1189421049313109 5.6238752624425947 148 114 95 1.9064787279504585 60 438 61 649 59 664 58 569 53 410
8232 1.4716638258085737 -2.041351393400189 5.270540650912177 51 48 41 1.3101887697301766 61 592 59 676 58 640
8233 1.018414097070524 -2.3514825750330965 6.2283892980654203 81 77 66 0.49117316286892382 60 277 61 298 59 683 58 476
3146 3.4630306750716211 -2.6328224307887029 3.6732054394769875 190 175 153 1.0384156049454665 10 404 3 499 12 421 1 521
8234 1.7679303995391689 -1.1239815325475013 5.7897658823593137 41 21 12 1.691602551945826 51 326 60 741 61 829 59 697 58 560
8235 2.4402316340338248 -1.9226492897810299 5.2326455908080423 76 68 57 1.5631951611718491 61 266 59 704 58 372 60 387
8236 1.0379473145752367 -1.9155405577912323 6.1696357987084767 100 81 74 1.0650448328173199 49 260 60 549 61 588 59 723 58 398 55 423 53 366
3149 3.3662103850365419 -2.9357087570211684 5.3293614521603994 105 105 95 0.41152020476777412 10 470 15 487 16 503 3 526 12 502 1 509 2 432
8237 1.1024052663159096 -2.0714101728424001 7.408927650134923 56 48 35 1.7235326800810955 60 614 61 570 59 724 53 365
8238 1.1324262908050713 -1.496280665082512 6.6245844150630209 136 109 90 0.59693361234341691 61 875 59 728 58 713
3151 1.8539035921584852 -1.7400879866361587 5.1185746992398888 123 95 83 1.8642743359597853 10 333 16 352 3 561 15 1160 3 1078 12 376 1 489 1 1399 2 538 2 1104 31 471
8239 2.4805373435658642 -1.7253840514130792 5.1644121042993207 123 128 105 1.799016497503245 60 811 61 690 59 738
8241 2.8617587301075535 -1.8501220563613503 5.2790071524340938 92 104 84 1.6192098417881993 60 642 59 741 61 692 58 378
