# 3D point list with one line of data per point:
#   POINT3D_ID, X, Y, Z, R, G, B, ERROR, TRACK[] as (IMAGE_ID, POINT2D_IDX)
# Number of points: 424, mean track length: 3.4620060790273555
4377 -4.2125605793957241 1.7613970267768471 4.4924146134372753 31 27 24 2.5201303973375135 14 2711 13 1741 12 1864
1050 -7.9129922612698342 -0.93570058710616222 10.336031984962954 194 190 181 1.8260140051189053 3 231 4 179 2 285
2159 -3.8260704225195137 2.2747161940986924 5.0112722345970395 40 46 44 0.61157048505183342 16 269 15 417 7 186
4378 -7.1557295706442003 2.3154498988969423 5.2734373863314756 49 49 47 1.6294409516851505 14 4227 13 1775
2021 -3.6105012134605436 2.2831563779871726 5.2338216997553513 28 38 39 2.0528796938984004 4 2315 12 1334 17 3710
3269 -4.0100486924550856 1.7639894996578049 4.5194158180839095 55 52 47 0.80006332929179047 7 780 12 1220
912 -3.2288625709185861 1.4133660775086418 5.2059167244012254 26 29 28 2.0622348900796212 1 3964 5 2909 4 4072
1078 -6.5206793002457548 -2.1164257329169915 10.849843644797343 142 166 200 2.429708454342149 1 268 3 458 2 511
2702 -3.4598110723816586 2.8485573833966424 5.776695861463212 41 47 42 1.3782281707953745 3 3159 15 1956 7 1773
4382 -3.0471402576027913 2.758231414865258 6.1953840924851491 69 70 65 1.0136227058167466 17 3136 13 1993
2025 -3.8758145723915245 2.6650041762807746 5.1411682598095529 8 24 21 1.7109613474999488 4 2583 17 3732 12 2419 9 993 5 2501
1055 -3.9003698927299579 2.3316096860329183 4.9020300138079547 81 87 85 2.2351384603310605 4 790 6 163 5 135 17 174 16 152 15 215 14 5293
3412 -3.184589792130299 1.0536065692018024 4.9115541083812984 11 10 6 1.1859014600116866 16 899 12 2491 14 936
2164 -11.141740094966604 -0.20667448020165702 7.0179697292629077 182 160 134 1.2178824367093626 17 785 16 338 15 518
4386 -4.3932119519714785 1.6087526089993618 4.4976371190966526 9 9 9 0.34159648200868153 14 2596 13 2196
1059 -7.4925588653390376 -1.5176094481355924 10.392507504314214 114 114 103 0.34831658773467211 1 265 2 376
2168 -3.8668471520917223 2.5904690120013694 5.1124044006163789 140 146 144 1.3003729022411157 17 399 16 389 15 441 7 419 8 333 11 387 9 366 10 631
3250 -2.9574729921620184 2.5715101649301713 6.527061414662052 60 60 60 0.041999031852651511 17 1421 12 897
893 -3.7753853603601351 2.2334647085191373 4.9992008119473956 156 165 162 1.3479121302695061 6 1982 4 3490 2 3212 5 1786 16 1798 7 1275
4413 -10.39826834749589 1.6101581161181655 10.155933071240407 127 104 96 0.62471241410045109 7 34 8 87
1086 -4.6091724829167333 2.4684003446795857 4.3031581831749062 11 12 14 0.76303070833704201 4 558 2 611
3443 -4.0407218516125099 1.3944043837984468 4.5800796435531508 42 42 40 2.5298561893262583 17 2630 12 2804
4362 -3.4073325953959679 3.0951171128099002 5.989032970435396 94 95 90 0.69815058723948953 15 820 13 1373
2005 -3.4533985886888119 3.0659457884179413 5.9202257978621757 91 95 96 1.2045445336555318 1 3389 2 2416 17 3463
3253 -3.1628150757931421 1.6005021529117971 5.3437637289354951 28 33 31 1.8778781429294302 17 1561 12 922 14 1316
896 -4.4786404422111428 1.19391012028114 4.0623279164622019 167 167 167 1.1773506912932949 1 4023 3 2877 5 2274 2 4332 4 3622 6 1670
4392 -3.4969934781770853 2.2902915742713872 5.8791687410201794 24 32 29 1.8511169744993854 12 1942 13 2782
2174 -10.726384753747062 -0.56427530792849101 7.2146418201752605 208 193 172 0.63299368817037116 17 786 16 476 15 455 12 528 13 614
2189 -4.0915558993831738 1.7038906602565438 4.5210932896860196 178 173 167 0.99521417123486522 17 1493 16 665 12 705
4380 -12.990114364998925 1.0053093804089133 6.4701030920447229 129 119 110 0.031358236745611633 17 3356 13 1803
1053 -4.4452159273570233 2.4312522673090693 6.6598925361009362 37 46 43 2.4887767997864012 1 456 2 310
3271 -10.397742968227881 -0.069436924265752514 7.275706877933489 188 138 127 0.33600355172797697 15 1186 12 1233 14 1161
914 -3.9523086668060943 1.5843361065824113 4.5460928515570176 33 33 33 2.4625314402732359 1 2187 4 4142
1947 -4.1179407003496049 2.0114922785746705 4.4358976811593962 68 70 67 0.20373362994845803 5 2435 17 2402
4304 -15.0094113535205 -0.22820928983059613 8.5435127216106945 0 0 0 2.1414941905029088 16 93 17 113
3597 -3.9706697152812112 1.932311169552736 4.5673807904815176 16 16 8 0.91242899058563487 15 635 14 950
2488 -3.6595266015014429 2.3694444042452028 5.2180378662094142 27 33 33 0.7731549029895517 15 396 10 638
1959 -9.9971154608068336 -1.5817658140395121 11.191764327161462 45 52 79 1.7034315581947774 3 737 17 2613
2500 -9.8618710210109199 0.80840237367987644 8.4257686837861812 0 0 0 1.7465747502739095 16 321 17 460
4434 -3.7079746039203427 2.3963747601231948 5.1837068079413831 0 0 0 0.93794049050558737 12 270 14 393 13 331
852 -3.5204444636284604 2.9417492836415895 5.7632517490421664 56 58 55 1.4091383935354678 4 2553 15 1102 1 3350 12 1304 11 651 10 1034
1961 -9.9743897672047517 -2.0410054383056542 11.230399938404732 129 131 136 2.2017973902962464 4 2968 17 2646
1082 -3.7718260196516979 -3.2840413910327984 12.089454996830691 0 0 0 1.2975136298247587 1 418 3 680 4 660
3439 -2.3774678966483704 2.0486334003148952 4.4569629021271497 29 28 23 2.0737036183889268 15 2386 12 2777
3300 -3.2320301721752975 1.2627832843741349 4.9910753970518478 24 26 25 1.457856070335444 16 869 12 1478 14 5123
943 -3.5872298655462029 2.2887381667224598 5.2594780206093574 169 175 173 0.99870468464109252 1 4788 4 4547 2 3955 9 1903
3301 -3.3151187838225278 1.609108286905089 4.7978527023139437 0 1 0 2.6040307040256012 15 1238 12 1481
944 -3.7921098856939164 3.182365421857305 5.5916640582169093 71 76 74 1.32194465120657 1 5137 4 4607 2 4011 8 2465
3316 -4.4999989658417805 2.2755017922733121 4.1682955760120626 49 35 31 1.2964810150902966 16 2297 12 1601
959 -5.2625486633320619 -3.0201221144533701 12.12577245370888 238 235 230 2.5766258580636068 1 266 3 339 4 265 2 372
1978 -3.976932233579666 2.7489180685757169 5.1091825594370128 30 42 40 1.4320733149556579 4 3128 17 3022
4335 -3.3922359768337049 1.1407659234813312 5.0028053780392545 11 11 11 0.81224838826909473 12 958 13 809
2238 -3.6701385072766168 3.0748865938633205 5.6672275759783819 58 58 56 0.71669066917759383 16 1205 8 1084 11 1835 9 653
2239 -3.62109741404621 3.0308234036965573 5.6942428724547529 43 43 45 0.45507360704053229 16 1210 8 1089 11 1357
1984 -3.7640850715993333 2.3294464949111271 5.0742417550391492 45 56 55 1.234730476337889 2 3200 4 4750 17 3106 16 1774
4341 -4.5705697115593482 1.8140269381307803 4.4602296968122426 4 3 1 0.58216403107246562 12 1168 13 911
2214 -4.1731187985840723 2.2207429288901879 5.4681356995421888 26 35 32 0.8689342551404502 17 4166 16 918
3323 -3.4482574343237786 1.2515558498310722 4.7252392522315239 33 33 33 1.3523118232280096 16 956 12 1647 14 4133
966 -5.1457090425317009 -2.8828834797832017 12.331129939135755 162 140 127 2.61963670026093 1 626 3 481 4 956 2 766
2242 -3.5375026440161923 2.9554587477435783 5.7564174627430509 165 175 168 1.0717162704244683 5 1920 16 1216 14 1373
1136 -3.4893179423285541 1.1363212450704219 5.1204733309268535 42 46 45 0.21610967758558181 4 449 2 1043
3493 -3.6196498010923115 1.4203379109374579 4.623555383744252 60 55 51 2.8759661348483689 16 1400 12 2280
2245 -3.3036265900820543 1.2352642865497927 4.9013889625166644 39 39 37 0.38730988939296329 16 1260 12 626
2249 -4.0129586684655782 1.3972590739200543 4.4457687601909548 36 32 29 1.2069986134106432 17 2604 16 1287
2318 -10.624707086341228 -0.34804397024754391 7.6810738408390673 144 127 121 1.3635945352771008 17 3316 16 1942 15 2288
3726 -4.5522814015582265 1.020081139513932 4.3146896230420362 130 131 120 1.334447156715594 12 1807 14 2463 13 1716
1369 -3.3055537992511259 2.7217075625347951 5.8598126512893449 157 161 160 1.0835620796697447 4 4233 2 4420 5 3126
2617 -3.975883602176749 1.5962572650903246 4.4545061973232087 47 46 44 1.6406671554452961 16 1026 15 1290
2625 -1.8646835660025258 0.97755522912141191 3.2297433370059752 49 50 51 0.3571671706488263 16 2251 15 1396
2613 -3.8379540022934413 1.5822120747003849 4.4950630909469211 77 49 39 1.3515744258414075 16 1365 12 339 14 2698
4970 -3.6379008986142742 3.0576098292560578 5.6918299701240649 68 70 67 0.76019690369386606 2 3377 13 1115 9 1007
2072 -3.4158995320449144 2.8655792895529388 5.8351874575260956 26 27 27 0.81631244688050797 3 3917 5 2892 4 4213 15 2327 2 4475 9 1839 17 4365
3307 -3.6390207612364525 3.3078821083621541 5.8575839868694315 61 61 59 0.36876167123785658 16 2115 12 1533
2225 -1.2798381766186102 2.8730392792876285 5.6112108588626102 162 155 145 0.021370305190397926 17 1925 16 1116
2161 -3.5108353935983629 2.2924115822170705 5.3396437517267605 25 36 32 1.5121459063120579 17 392 16 281 12 606 14 552 13 544
3270 -9.061385791322035 0.14618988584462755 6.4959526129628529 188 138 126 0.46206050060576498 15 1185 12 1232
913 -3.3305870628811216 1.2897849121953404 4.9650711632649651 29 35 35 2.0138005411279503 1 2194 3 1310 4 4124 2 851
2211 -3.4044404673152271 1.2554976284419741 4.9787589789173996 108 116 111 0.92385040487337733 17 2903 16 865 15 1547
4568 -3.6776588649345929 3.4269929481058754 5.8695565152948888 198 204 200 0.86174526926335537 14 3179 8 1270
2725 -3.8852144385239358 2.6728854660853547 5.1381007552129816 29 38 35 2.2260364387664673 5 2500 16 2074 15 2125 4 3132
1075 -4.2841224381595442 1.0974927239100067 5.6240676392609767 32 32 32 1.4084232140529749 3 2177 2 503
3432 -3.7708728244171756 3.1529697813406892 5.621427981086307 58 60 57 1.5562393810831012 7 955 15 1947 16 2774 12 2733 9 1019
2184 -3.372350150782883 2.9994366865061846 6.2049717321325639 39 40 35 1.4063586115093913 17 898 16 584
4541 -3.7347022546684809 3.4062290820541943 5.814828089760387 120 124 117 0.71834837699356413 13 1451 8 1096 9 1404
1955 -10.318521149745994 -1.2482926372537655 11.266481811931662 84 88 100 1.0270117537621568 3 1576 4 1083 17 2594
2726 -4.4941282672863974 2.93018567676121 4.6057982538593567 4 6 5 1.8160847618496216 16 2240 15 2137 8 2265
3321 -3.5509963009038912 1.3812636523635324 4.6855356364505356 55 54 52 0.47604391314385552 16 940 12 1643
964 -7.042751202065225 -0.58859279881672877 10.514127742589634 205 210 206 1.6163588390763677 1 427 4 668 2 535
1103 -9.6313566640284307 -2.4717248243462926 12.6320607709591 72 67 64 1.0102562771272032 3 734 4 768 2 736
2345 -3.8120357270520633 2.1946289949417266 4.9333600380304308 31 40 37 0.44578685168588783 4 3984 16 2193
4702 -4.0813441851269534 0.78622219796234871 3.7671554689662203 20 16 17 0.26801879006984081 15 739 8 2371
2805 -4.5144691972387347 2.8735549068970703 4.5339174512040552 76 78 75 1.3798169588722615 17 4202 15 2646 7 2090
3313 -4.0879747468795111 1.7917951359077915 4.4997380023637241 39 39 39 0.17452953180112302 12 1583 9 895
4376 -4.4419973589586821 1.8028359473875377 4.4435767857006843 39 34 30 1.5187860497752597 12 2365 13 1737
2019 -3.797227986065955 2.4734942104669662 5.1235508665190244 16 26 25 1.160120904006712 5 1290 17 3705 14 3739
1049 -5.5474146656697938 -2.2602527315119638 11.560439152538676 124 100 82 1.6231989866601235 3 189 4 178 2 283
2158 -11.057570122573463 -1.1721711677745246 8.3033834764859211 73 58 37 1.9787941897688366 17 782 16 254 15 451
3186 -4.0726206906590123 2.5709825485230069 6.1275455118484752 14 23 22 0.69793143486355691 15 1655 12 192
3059 -3.8280881709190284 2.617584463082808 5.1689834319763204 81 90 89 1.7828431915341267 4 4184 7 1699 3 3933 14 4983 13 2097 8 2459
5503 -4.466565765266572 1.2737877510441187 4.0534045089500585 49 42 32 0.56768758619812432 11 51 10 77
3146 -3.2091204332525636 2.9410558904231898 6.1982162767284468 0 0 0 0.44831395503981042 15 1088 17 3585
3285 -3.8973334084845979 2.5756855547885018 5.0717623849066946 12 14 9 2.3101927668765914 8 1189 11 1545 6 1925 12 1332
928 -4.4168113702729297 1.1717603703864907 4.0711632422301935 182 190 187 1.2564248455595797 1 4777 4 4267
2176 -10.792262897171664 -0.5568039302325154 7.276344048325015 144 126 106 1.9764894384124496 17 1230 16 487 15 520 12 778 13 1854
2947 -3.2286684815780644 2.9790947539335573 6.1460353039636377 201 206 205 1.9363636130724255 17 2732 7 637 15 1092
5304 -3.6174526206672035 2.1153279543968986 5.1101330072752393 61 63 60 0.77471125639810001 7 893 9 1001
2439 -3.0250158848296063 1.3844008192860142 5.217179327551138 24 25 24 1.4937089897835294 17 3069 12 41
4796 -3.2108261162299931 2.9055832707608071 6.0996419695289834 124 128 122 1.4087760334006507 13 2390 9 1172 8 1617
2060 -4.0065654351135382 2.4047416705296603 4.8227631212209365 135 144 143 0.56647494914658192 5 2653 17 4414
4417 -4.482612497857362 1.0890191364608299 4.1449934608632342 230 238 240 1.3689008953039075 7 89 8 111
2601 -0.4137841612647607 1.1998474981163894 3.7810692239829624 16 27 23 0.2185834192504974 16 1160 15 1149
2604 -3.3493005234647191 2.7582309490764501 5.9247419983875318 51 52 54 0.94183628794673946 16 2489 15 1171
3145 -3.9489225486392106 2.4373730275261369 4.9226784086555266 90 99 98 0.82040875707359462 15 992 14 5218 9 1076
4538 -3.1333151461776048 2.8312881446939713 6.1698018769985632 129 132 123 0.94940412717384182 14 2412 8 1076
2320 -12.688432980550681 0.15795409436992061 7.2218432429687534 184 177 159 1.0104165400225849 17 2179 16 1968 12 2755
697 -4.7063438120723777 1.8589614838732902 4.7762496895103936 8 14 16 1.7224050041901453 1 245 3 315
1980 -4.1148071428823938 1.8052123523558512 4.3057056419553046 8 7 3 0.87388334323688643 2 4203 17 3076
4337 -10.315143048935425 0.43626481167909087 8.141143459370964 185 137 126 1.8472423568587983 12 489 13 843 14 2585
2751 -3.5940711355485648 3.0392662300446234 5.7408681706417504 53 53 51 1.3746049108778582 1 4301 3 3152 12 2398 9 1850
2869 -4.9990789892877352 2.5621194636831803 7.4638470386706119 83 85 84 1.165378143198684 16 2038 15 2336
859 -4.1579406856592529 1.4402038808232591 3.6738063788239983 31 31 33 0.32621899147728162 6 2379 4 2666
3216 -10.920376452630334 -0.48579138363973007 7.0129229020612049 101 88 63 0.91154848314094195 17 783 12 531 14 746 13 616
1968 -3.5135640644471304 3.1849690494994003 5.9419155070483027 64 68 71 0.8160004404691692 6 829 17 2715
4325 -4.6038576737696166 -0.04311024620615761 6.3977903500643309 213 172 163 0.93639565162230654 14 454 13 587
886 -3.4364841062471418 2.2259758472481619 5.3890972469918745 79 90 86 1.7593010065683143 15 2606 12 1948 8 1198 11 2197 9 1026 4 3225 5 2511 7 1193 14 2023 6 2574 10 1038
1939 -10.154022059208556 -1.6710592730814184 11.031869728317867 95 101 115 1.1339793364835256 3 1082 17 2248
4296 -4.7059460878501671 2.5757450603510703 4.3879628939368214 46 51 45 2.642769301520234 12 76 13 69
712 -4.947137286530352 2.3487384982002317 4.2823986687277316 65 61 61 0.27115023036934294 1 3586 3 2932
2704 -3.9847421308598583 3.6282288578020863 5.7118285492603595 90 92 91 0.19026781761165984 16 2122 15 1966
2103 -4.5850430137222764 2.4194902932093894 4.1400683144145436 0 0 0 0.60909903914223951 1 3252 6 2530
3212 -3.8880428899807566 1.7730785141541479 4.5645973820055001 35 32 27 2.4100230783697021 16 685 12 511
3266 -3.9757638741682699 1.7620796873015145 4.4430334267445595 7 1 0 0.48676390522828916 16 1058 14 4073
2157 -10.686750107286697 -0.6496795726004273 7.4577613547690342 249 245 233 0.97834159318105129 17 333 16 251 15 268 12 334 13 423
1048 -8.678575083959096 -0.99327841802062844 10.512821618270644 73 90 106 1.5258580405470077 3 262 4 264 2 279 5 176 6 171
3405 -3.3524860753394661 2.7979643760366759 5.8698574742356717 53 53 53 1.5966082488411597 12 2413 14 3616 6 3249
2266 -13.537782888880654 0.12532891750409655 7.5864063275473592 169 160 143 1.1763002770271265 17 3903 16 1491
643 -4.2483335274496357 1.8733447957613574 4.1718364219444073 41 41 40 0.52440775007239426 6 1599 3 3257
3000 -3.8138191863541349 1.5377334580540378 4.7607761428229045 36 36 41 1.299243482127471 17 4115 7 1084
1076 -4.4139866224042317 1.2651868575485778 4.1585687549476509 31 24 24 0.31218662007149256 4 164 2 505
3433 -3.8735055048152054 2.3590461028391134 4.9617085558530221 36 38 33 1.4735113144618242 15 2687 12 2736 8 1827 3 4007
3294 -3.7777282242092056 3.4817343636735822 5.718699207993291 59 55 53 0.77076832941288864 15 2582 12 1390
5458 -4.1727941485449191 1.7579752833301545 4.524646614161858 39 39 37 2.4894886844384101 8 568 9 291
744 -3.7652084501565644 1.5606354611944775 2.0255480644216255 12 12 12 1.6174914631035864 3 471 4 339
988 -3.4236827913844863 4.1875215351943984 5.1983754096917272 202 204 199 2.2650340192260634 1 4945 3 3949 4 4155
3345 -3.6417244167152356 3.0376151829212814 5.6701004160360435 0 0 0 0.46136838197829383 6 1275 7 960
2327 -3.7614354990987979 3.1590308464927119 5.6223842037194149 158 163 159 1.551457382255232 17 2034 16 2042 15 1948 12 2437
704 -3.3715504372612206 1.2816953349906062 4.8622444907088784 98 112 111 1.0671557345119951 6 1377 3 1384
3061 -2.9202489688088673 2.6714378754793602 6.3262146823557002 134 138 124 1.4495937673958796 15 2615 7 1732
5418 -3.8033720737520387 2.1839525303271636 4.935181975895464 74 76 73 0.90818170792647979 15 1604 9 1885
2248 -4.1691876765524007 1.2209889447754827 4.707200153808027 51 42 37 2.0255079655311645 17 3126 15 1480
5494 -3.9254873247330084 1.5913839735623778 4.5016330982937909 36 32 29 0.70060999472578422 12 1203 9 2137
3137 -3.8325763758697184 3.5658203691105794 5.8213413910260927 196 201 198 0.068057931207616135 17 4011 7 457
3276 -4.3852687117439944 1.560758676007028 4.1987685238834525 42 33 30 3.0720479114596553 17 2662 12 1261
2179 -10.447272913934045 -0.20132214609481436 7.4617654036534207 215 167 156 0.9066050902304994 17 798 16 498 15 491
5168 -3.9400118436039118 1.4405190829888381 4.6608467284203972 1 1 1 1.9638287697802723 7 792 8 290 9 152 11 330
732 -7.8161502797194631 -0.54196007990868489 10.674873167865606 208 206 194 0.79869324607446401 1 151 5 118
2950 -3.3352570369980459 3.0836588782709078 6.0738814019620539 187 197 194 1.6219829657051283 15 1159 17 3597 7 640
786 -3.3297127805230127 1.2303569751303076 5.0161508040749325 12 12 10 0.94708944188886657 6 1420 4 1256
2572 -4.6147231091591694 2.8030741487212101 6.3953871831761511 32 44 41 2.7924223411185722 16 434 15 941
3343 -4.2315955312592184 3.8275538554001227 5.6567074901819394 66 67 63 1.0606126279336094 17 2794 12 1886
2261 -4.1901210672979587 1.8079834431032926 4.5495468171314242 37 36 32 1.7835898096993532 17 2320 16 1432 15 1825
5492 -3.7709207765709487 2.2394303910550368 5.0227758120795958 132 134 129 3.2268538296008495 14 3107 9 1880
3135 -4.398840029744151 2.7029701197937146 5.3553718040158378 93 103 102 0.35013428893720977 17 3102 7 404
778 -7.4769415780259996 -1.4666185074859863 10.213065974138949 193 192 182 1.4699999308399261 1 1473 4 1097 2 1501 5 2765
2165 -10.719764409056273 -0.64725962553696015 7.4123636642371284 213 205 191 1.0796334859805266 17 789 15 512 12 365 13 630
2679 -3.9432016560171528 1.5865893837482183 4.3910816245398374 42 42 42 1.8237831955993871 14 2507 8 1993 16 2288
2738 -3.8188090506923444 1.6282798556218427 4.5509597033561642 12 10 10 1.2318173677627897 16 1398 14 728 12 1030
2227 -2.0012446278889038 3.5292209590800017 5.2153602732858104 231 232 226 2.1758544489657927 17 2884 15 883
2721 -4.4338928367456774 3.2553603393075887 4.9436387679531588 85 87 82 1.2812084604329095 17 3736 15 2113
4420 -3.8097985807665022 2.5383470725046835 5.1422010786465462 87 96 91 1.6951680980806603 7 129 8 126
2063 -3.7510336517070244 2.357060093139336 5.100708640508822 180 191 191 2.5219868923243269 5 1804 17 4425 11 1369
3311 -3.9913604399449842 1.6782229553858734 4.5537071750863447 134 131 126 0.43310360052508545 12 1580 14 2064
2220 -3.3380428592442897 1.1090188778281411 4.9803594450595314 59 52 51 2.1511336504232559 17 1686 16 990 15 673
2477 -3.8148592431334167 2.5668050999016372 5.1672153419426321 72 74 71 1.3022353678499283 1 460 2 626 17 394 9 185
854 -3.6570236711824506 3.0382286390184969 5.6739984713125722 39 48 43 1.2236420922153559 1 4298 7 1175 14 3756
3211 -3.2516710620360421 1.0618155503569537 4.839252669467542 117 116 112 1.2808666416732521 16 61 12 497 14 408
4100 -9.9831325347219977 1.2692082021373612 9.8443838110608652 173 124 118 1.846768645774056 12 1324 13 1070
2991 -3.7950314045820952 2.1734846310383444 4.9401384580037133 84 95 91 1.7346686011446704 15 603 7 923 14 3482 9 713
4160 -10.950534999694764 -0.51543118935720478 6.9935534444731591 99 85 66 0.58492123888394321 12 1727 14 1871 13 1565
1942 -10.316306342229643 -1.7626593434716982 10.812684440194101 84 87 102 0.8641202344964074 3 1040 17 2298 4 1479
4299 -4.3541622935344853 1.6314079513684721 4.7663394613190988 148 146 136 0.042688301123066888 12 121 13 134
2321 -12.589719853401137 0.057424832969776907 7.2776745625302244 175 165 148 0.48859065210157337 17 2178 12 1748
2835 -0.91147813689964607 2.636806953431301 5.2949728688847859 169 160 151 0.5913855877727332 16 831 15 861
4458 -4.0895067065246575 1.0882927627594634 5.3688325988322303 45 44 42 0.3110027011006381 7 755 8 382
3349 -3.8932464354389102 2.6663669913437049 5.1247481322939246 24 26 21 1.640197707048844 15 1228 16 1179 12 1925 14 1531 8 2094 4 3134
3175 -3.3982514246625328 2.21842127031289 5.0402210764943831 36 37 32 2.4120985087856535 15 70 12 81
4374 -4.5396966393180795 1.0199092787234718 4.3975392622617626 50 45 43 0.52862355590030985 12 1802 13 1681
2017 -3.8829195877084977 2.5972976929686205 5.0983265728803424 169 179 180 1.085070988057715 2 4407 17 3702 16 1175 13 2096
2156 -10.716227006874487 -0.68460920512063672 7.4118447176121878 253 255 245 0.66200471571582176 16 250 15 267 12 265 13 306
2183 -4.1866923487423646 1.7099277664393218 4.8241897944175998 38 39 34 1.1570012852987988 17 1457 16 563 15 726
4540 -3.9691254272986098 3.6267033289986821 5.6399151651951867 114 116 111 2.4405203550694021 14 886 8 1083
1074 -4.9031897923954437 -3.2624147496138356 12.554422589218605 176 159 151 1.1373215384852984 4 665 2 488
761 -4.5451605508030521 1.1731926109645254 4.1309468428597382 27 30 29 1.1452807878335527 1 786 5 1663 6 2933
3466 -3.6137865631783725 1.3160647090110091 4.5819547931326552 7 2 1 1.1277382727298686 16 1357 12 312 14 654
1109 -4.7356457492770545 1.2132860704503727 4.1179768754730475 25 21 22 1.8981984227646098 3 184 4 710 2 763
1999 -10.030337842557675 -1.3272520861486039 11.578926804619272 136 137 138 2.0384241188369501 4 3690 17 3279
1066 -4.6314005510801382 -4.3025693111803518 11.898982632605543 115 96 100 0.93927044018606498 3 391 4 253 2 429
2175 -4.3935960932657085 1.1481028096643404 4.1751657368678048 7 4 3 0.40543544217017136 17 2105 16 483
3284 -3.5144099980187735 2.9233579688492819 5.7511145293485404 46 48 45 1.3040016150082074 7 972 16 2521 12 1306 14 2125 8 822
3242 -4.1291579878247529 1.2392210464520665 4.6750042899256163 12 3 4 0.80632707097783207 17 3197 16 1317
885 -4.5444012295627294 2.8296271288597397 3.8988054622674366 237 239 234 0.96039001660827916 1 3176 4 3224
5599 -11.922937224162803 5.8028693533842093 6.1726174714937532 80 78 81 1.6986441414710758 11 1239 10 798
2133 -3.7994686262089812 2.3747392113963377 5.0673590562750803 30 34 33 0.601306224059453 17 117 16 105 15 107
3215 -10.783887467816538 -0.59693009858965307 7.3207696714186703 130 113 95 1.0723682578808238 15 735 12 526 16 742 13 1483
858 -3.887160569402508 2.4672666750482271 1.4433796806482604 160 162 159 0.53098210614620367 3 3303 4 2657
3583 -4.0190919935791714 2.4129864811213286 4.8266777833812728 25 26 20 0.95437883197210294 16 2242 14 833 9 1893
1226 -3.7762761515232612 2.5123749352945768 5.1208476013639759 33 39 37 1.7169118541698705 1 971 2 2276
2474 -3.9728325421387938 1.7161068691194339 4.3897703766511444 5 1 0 0.63387320793333668 15 261 14 1581
4831 -4.4524032631238146 1.2102968635043181 4.0545749148294705 239 239 239 1.0052331894823516 7 136 8 113 9 86 11 87
851 -3.9342018016512608 2.6426501212627964 5.0652314522761994 57 66 63 1.5777550642442282 4 2541 17 3098 16 2065 13 2095 8 1804 11 1853 9 1058 5 1235 6 1922 12 1921
3208 -4.1958161049849485 3.8256667479654656 5.5561457590991203 60 60 58 1.4306104455132695 17 894 12 425 14 583 13 493
1979 -3.6106306971457354 2.1062057985755609 5.1090022294796 17 31 31 0.99368864375187105 17 3060 15 1619 5 1276
4336 -4.3642961257665558 1.4108650499362418 4.2253828865183172 46 46 46 1.9821779391437679 14 765 13 837
4170 -11.727469544354323 5.0044317351799021 4.2425509447740701 164 153 144 0.47614381753473561 14 796 13 1650
843 -3.8813260541646941 2.2699315362952937 4.8929671937305281 175 184 181 0.39786177590599209 6 1204 4 2338
3200 -10.0960846686602 0.3618407999331269 8.0177376693492857 212 171 168 1.5284449142959362 15 281 14 1638
2750 -10.076228818128588 -0.19566104240281068 7.1994252004653214 32 33 17 0.57076335908230469 17 3987 15 2315
3007 -3.6084835165386355 3.0541508538340096 5.7201799315687358 90 96 96 2.4163524085892858 6 2593 7 1177 12 2917 16 2690
2546 -4.2798182185943654 1.4158573904304201 4.8019550909283479 15 14 12 1.0003113504540047 16 1667 15 777
663 -3.9698604880660158 2.4359550429815977 4.8930016520197928 160 169 166 1.0699788269839825 17 3766 15 2668 1 4415 5 2919
2543 -3.2518001436481017 1.957425751988175 6.001526908490173 120 121 118 0.52221457947745054 17 3044 15 764
4496 -4.5566874389772156 1.1274248142729735 4.1089058400754741 63 50 46 2.4457599345855678 8 657 9 706
2139 -10.679371304525992 -0.3182679838908648 7.6580772980034801 252 227 222 1.8192360086704575 17 109 16 150 15 133 13 211
2278 -4.321991075484064 1.6216620610135275 4.2324263947910481 77 70 60 1.2860989690101317 17 2695 16 1573
3360 -3.3811264633652995 3.0722901058842655 6.0108758192025045 117 118 113 1.1584766952840313 16 1102 12 1996 11 1608
5717 -3.7578617372467087 2.5124902166211442 5.184623136108657 134 141 139 1.2599139724494006 1 685 3 795 2 883 5 440 17 564 16 393 15 397 10 637
2792 -3.3291043361341606 2.7458715722983005 5.8356548669297839 44 45 48 0.87161592087437811 16 2677 15 2586
2535 -5.2107349760126747 2.0262092763660218 5.1808256819990746 99 105 95 2.5501111076142751 16 674 15 720
3642 -2.9688287806391034 1.23486213070504 4.6415530611661229 23 22 17 0.22200177963508083 12 1421 14 1441
2533 -4.0832609662297914 1.7670086468900315 4.8227606956955356 71 72 67 0.74157390114258992 16 367 15 707
1013 -3.6728474102821007 2.2622161565617072 5.1556317034159269 83 92 89 0.0072380887264577205 6 29 5 42
4749 -4.2531818715472571 1.746110879322287 4.8702097125194568 12 12 14 1.5547641951103595 7 50 8 119
35 -3.6236731459330787 2.0299017289363395 5.0461004920381143 164 170 166 1.6666812244166622 3 412 17 367 16 445 15 427 7 270 14 624 9 251 1 657 2 601 4 402 5 345 6 299 8 244 11 401 12 578 13 473
2531 -2.9877634140946214 0.93784517512019483 4.8286603338427856 67 56 54 1.139505071572857 16 577 15 696
654 -3.3017594573779503 1.1678729685343756 4.898657360709648 50 50 50 0.59803647316416297 6 583 3 3443
3011 -3.8240338797479567 3.2457276084698559 5.6012416694725227 85 91 91 1.1617878055156106 7 1191 12 2772 16 2773 11 912
4204 -3.7627962858861053 3.4502268015254112 5.7794392387771474 0 0 0 0.72294559982054052 12 2415 17 4054
877 -3.9809950413914326 2.4662076183648116 4.9069054420814719 51 60 57 1.7070075593669589 4 3179 17 2814 16 926 15 994 9 798
1986 -3.787358303894913 2.455032358834293 5.1273603685707831 17 28 26 2.0278062072767771 3 3025 4 2976 17 3135 16 907 12 1920 13 1265 11 1376 9 1194
4343 -4.3430331571460012 1.7712908783610608 4.4464695945359685 2 1 0 1.2612706248304562 12 1172 13 918
4461 -3.7492902475531316 1.1846803280191518 4.8393342886411101 75 91 88 0.72580928901485176 7 295 8 408
2243 -13.152215171223352 -2.3045795436206369 10.033921008133779 115 96 88 1.2468895854278403 17 1223 16 1224 15 1482
2485 -4.0834451684847881 1.7084471438929922 4.4049112224523483 3 3 1 0.88057266296772752 16 375 15 374
4576 -4.7259091251981404 2.4298121020549646 4.2417796578356652 41 37 34 0.6478639751327393 7 739 8 1295
2219 -3.8358915341848046 2.3278972753602218 4.9712823719127286 27 33 31 1.2387980572126676 17 3764 8 1829
2358 -10.791062657637282 -0.8305386176640619 7.3360078001915427 144 118 103 0.69996250457395359 17 4290 16 2325
3440 -3.5298143018580332 2.9265491136909225 5.7214661155940139 0 0 0 0.844531720633515 2 4476 15 2329
1964 -10.293473606799425 -1.7213223042910937 10.834851420240598 94 100 114 0.43505285306125641 3 2134 17 2664
4321 -9.9052057598939527 1.6901259754726639 9.4706310256465738 228 191 188 2.9789562373463143 14 276 13 525
1991 -3.8536861749644733 1.4932031110351416 4.425767576535244 6 5 5 0.88668205265113986 1 1335 5 1149
882 -3.645696662764176 2.4175618227254745 5.2382841706545085 59 68 65 0.28054745290556049 1 4437 2 4397 4 3205
2478 -3.9088973519959573 2.3855127486193539 4.9168349365281205 131 137 133 1.9741053962484312 15 294 12 405 14 444 13 318 6 2611
5724 -10.830677406723121 5.6775345868877158 5.9066723242988406 159 158 164 0.74630457138657791 11 110 10 145
2451 -3.8404727848733033 1.5400375311228882 4.4423779161988568 4 4 4 0.81572818450391515 16 48 14 2533
2952 -3.6071690059459072 3.3450645445314588 5.9217826569267205 186 200 199 0.34204041131921581 16 2132 7 644
2384 -3.5527531387849756 2.997533614487975 5.7643718090804175 25 29 26 1.5935502830143506 5 1460 14 2120
2310 -4.1110390118978906 1.1765780564549966 4.571564948497957 28 22 20 1.6050477421964671 17 2690 12 490
3392 -3.6346929256967284 1.451837738318003 4.6437826987018695 37 32 28 0.27246076338625369 16 1052 14 1673
5749 -4.1407560090012296 1.469971186832677 4.997205506391432 27 28 30 1.0785007510888718 11 1081 10 785
2177 -11.027698169784854 -1.2110861280056493 8.1543360422809013 204 169 149 0.94182161646838314 17 791 16 489 15 486
4534 -3.3194935502536489 2.7314913596636723 5.8671430607702604 0 0 0 0.90065163079325894 13 1136 16 2496 2 4434
1068 -4.786933131670974 1.8917448674609028 4.5913937730725616 68 71 76 1.0202480795621816 3 568 2 453
3425 -9.1011986027155842 0.21868114633171712 6.3880635483434363 127 100 97 2.2312406053160574 15 2312 12 2677 13 2595
3516 -3.401900715464993 1.2353329956487931 4.984616522384 2 2 2 0.76660926427690046 14 157 13 535
2407 -4.0853163889493249 1.4883524858211257 4.7817742592965704 149 147 143 3.262599124105761 17 1524 16 639
784 -4.566213575159189 2.7447450855408082 3.8138741304025987 161 162 157 0.024797470128576391 1 694 4 1174
3141 -3.0297329008698268 2.7767166746955905 6.2831499069343915 0 0 0 0.45825013770354717 15 1085 17 2787
2092 -4.0634481977196115 1.7848422598625084 4.3640095307443421 17 11 6 0.7939779175620445 1 382 17 1717
2349 -4.7876303921935577 1.5290059202950197 5.8764961981082626 4 8 7 2.8940877222330208 17 2947 16 2223
4566 -3.7377200870806742 2.1712706079793564 5.0071064361519104 87 98 94 1.5795565076870031 15 1095 8 1263 11 1530
2348 -4.4084137637575269 3.2008060938484184 4.8883700737899396 77 79 74 0.599438512449181 17 3097 16 2215 15 2370
2860 -3.2391989451571126 2.0736497501131486 6.1201658985799616 76 78 77 1.5872536454270156 17 4036 15 1946
4537 -3.4166950275220693 3.0915910502168717 5.9886341303499968 86 91 89 2.3295806646002544 4 3330 13 2664 8 1067
2180 -10.53531246081298 -0.86717463024166164 9.8700243944857107 178 167 163 0.41677223663422336 17 442 16 522
2319 -10.697856262826546 -0.71487857486314199 7.4078939931012853 186 152 138 0.69812855209240698 17 2175 15 1346 13 1481
993 -3.2237904858792255 1.39299424839993 5.1863883704812173 86 91 94 0.69748319888772259 1 2793 4 4745
2332 -3.5457140875759174 2.3037112848522963 5.3039397748569863 15 24 21 2.4971097899437886 3 3027 14 3077 15 2037
2329 -3.4775793660388548 2.9162041371584908 5.7956062797168242 168 177 170 0.8668811850560102 17 2752 16 2060 15 1180 12 2404 14 3285 13 1902
2326 -3.1779007334541705 2.1542739861133033 5.9393090124630188 6 16 17 2.5262357662018848 17 883 15 1944
4683 -4.576939878999374 2.6918855333188145 4.3452801398353511 123 128 125 1.2590137162131909 7 1097 8 2199
3174 -3.2689758901870651 1.1794114104767386 4.8889396576310302 70 67 64 2.3043148458412444 16 1746 12 77 14 62
2065 -3.5844310352442692 2.3795594028323714 5.3121616707785275 38 51 49 2.4276976481113168 3 3019 17 4451 9 1700 14 3080
1205 -6.4323151022167995 -2.8943357865482513 11.815270043851214 197 188 185 1.183987060970888 4 3781 2 2090
3562 -3.9919759273869451 1.8810898328099699 4.4897340660117608 42 37 33 0.64524625887808484 15 675 16 1410 14 693
2314 -3.9371148440717585 1.43543666899636 4.5324871692986699 38 34 33 0.75212267265015542 17 3809 16 1923 15 2178
4671 -4.3762457920328437 1.6875824658213983 3.9081120343377611 102 108 108 0.41433821033410112 16 29 8 2072
2821 -4.1279112738770758 1.3773863030797797 4.4611625055396082 46 42 39 1.5680241000478956 16 749 15 469
4471 -3.622416139795015 2.0393120237554569 5.03254478315091 82 92 89 1.4644258954492178 12 1393 8 479
2114 -3.6962108934400839 2.3818591634594708 5.1711176967845462 168 178 180 0.38476130287539778 1 1607 2 2226
2307 -3.8493385137872735 1.2797458954707066 4.0354744613355065 3 2 0 0.53335229668066497 17 3444 16 1831
684 -4.1027453203291238 1.7282067304124207 4.6703550001660501 119 114 106 2.2483993738673527 1 2800 3 3721 2 2826
4523 -3.8216687351715382 3.2352260266943036 5.5883570879292321 0 0 0 0.56759567834994995 5 1868 16 2776
2305 -3.3428736919477733 2.7350043452384205 5.8466301220059211 38 40 39 1.5425902455382894 16 1818 8 1606 6 1950 12 2823
4662 -4.139243750682903 1.1090907096742622 4.0971477395758749 7 7 7 1.7321566470876979 7 2046 8 2017
2304 -3.996993095759513 2.4772576284157788 4.9051398145164908 24 32 27 0.034498477589694335 6 2618 16 1791
2046 -3.7857659739222314 2.5426374383020174 5.1924353102349414 171 181 182 1.4936818516548271 5 2923 17 4179 12 2421 9 1907
3128 -3.5210568238200683 2.3055020241121986 5.3390683191810799 45 48 46 1.666760707153135 15 2383 3 3026 7 1714 14 3081 8 2114 1 4473 6 2575 11 2199 5 2922
771 -4.5436432867966801 1.0916143688983233 4.0998764419393199 99 102 99 1.6285052946372067 3 987 6 1452 4 969
2073 -3.4322419885185864 2.8806619876534834 5.8279334418630242 43 45 46 1.9573837115450723 3 3916 5 3158 17 3944 16 2539 15 2265 8 2184 6 2590
2817 -4.1606532272931753 3.2571605359277678 5.1298903988572153 64 64 62 1.0487812087206705 16 146 15 73
2044 -3.7123388998501672 1.5609148423143975 4.6229561607555576 69 73 74 0.47843015131710465 2 3655 17 4139
3180 -12.723020006709062 0.30092325651770463 7.120769536277626 230 222 211 1.4589374758415383 12 137 13 171 14 185
962 -6.6104052561620561 -2.142673767693787 10.889131475601419 146 177 214 2.1793549482212988 1 573 5 541 3 635
1104 -4.1125808067031464 1.0225971784730412 4.1870966456125762 37 31 31 1.8027633454393241 3 1467 2 751 4 1981
3461 -3.7622789954434395 1.4742033619593002 4.5117658599103558 2 1 0 3.1076974015483785 16 1003 12 135
3322 -3.4108000130184881 1.1985462183923863 4.7483402103102135 4 4 4 1.3361874455677547 16 1416 12 1645 14 1657
3376 -3.5024772888799864 1.5155299160509723 4.8302980654315517 32 32 30 0.47473169082129107 16 1823 12 2156
1019 -7.6020879744668663 -2.8240505991065388 12.040208403672805 95 77 65 1.7273762918319273 3 117 2 112 4 95
2267 -11.022700491059265 -0.30548717421828991 7.0916408177624577 183 162 139 0.059907602084000686 17 3045 15 1609
4624 -3.3976978518667473 3.087528356049992 6.0093257929195074 121 122 117 1.3103005695537024 14 2432 8 1628 9 1486
1158 -4.4950895028324336 1.3286840292598223 3.9661816019964999 45 36 37 0.52412784683082392 3 1517 2 1484 4 2009
3515 -3.1338336367929398 1.4381342970290312 4.5663984197975251 63 65 62 0.44803201608143634 12 281 14 141
2287 -3.7771697889842324 3.166354850114403 5.5978461135256126 51 56 53 1.8271566808692434 5 1911 16 1628 6 1953
664 -3.7181033790240958 2.3259603269416127 5.1281356766306416 71 82 78 2.1845208641333294 1 4408 5 1283 12 1331 14 3141 11 1861 3 3578
4243 -10.414765658643885 0.69671230232972492 8.9568742019708587 175 131 129 2.6943988392368876 14 761 13 2398
3134 -5.0341267994637207 2.1016279680188905 4.4171812996010829 40 39 39 0.70371895851967947 6 2463 7 368
3161 -3.3569564149044884 3.1203626679062775 6.0569024689984374 198 208 204 2.0101453482675748 15 2048 7 1783
4500 -4.2592109864900021 1.1094552105687765 4.1054011023341106 33 30 30 2.5324086909822885 7 361 9 1963
2143 -10.707735827500064 -0.69741017638476455 9.8941590152069043 177 169 167 1.6449538413978619 17 216 15 190 16 161
3391 -3.6204164999188326 1.3662902825109189 4.5973619914299748 148 143 132 1.3803623188806193 16 455 14 714
1034 -4.5074500499638672 0.54299689397074413 6.451370161746997 57 51 53 1.8502311939937104 1 178 2 241
2282 -3.4363929252903866 1.8208094753595281 6.3673098705593247 94 91 88 3.0910986938452352 17 3504 16 1608
3409 -3.0526169694847143 2.3904958677048267 6.622542601762702 83 85 80 1.6732456909577824 15 1585 12 2438 14 3224
1191 -4.199711316608 1.802816024481414 4.7201471399870103 41 42 44 0.01856501981502242 1 1178 2 1933
4489 -4.3124405375357986 2.0423411727186993 4.3137194291520951 54 56 53 0.86810888879773962 12 1613 8 584
2132 -10.6820700085899 -0.69286477376944433 9.975663864416715 85 80 77 0.88923847891072116 17 154 16 99 15 100
2298 -3.3395135431185028 1.2573312952019933 5.1029797801252714 12 21 18 1.0263709378951755 17 852 16 1709
1189 -4.1085164180320328 1.7724653967330204 4.5239534961809076 110 101 94 0.29020868078778345 1 2781 2 1909
3546 -3.6035909435193778 1.0833745074708323 3.8908788504515592 46 39 29 0.60875335342526826 12 563 14 500
1160 -4.5828583632875146 1.1648521299607497 4.6037298393098505 177 179 174 1.8478221268193789 1 1489 2 1491
3517 -3.2615585320398393 1.3978359533534812 5.0610775085388449 0 1 0 0.28812323772047443 16 1718 14 159
2269 -10.648802439316842 -0.35313852172455901 7.6292069971912264 90 73 67 1.1001070260478822 17 2607 15 2571 12 2304
646 -4.4578682550350033 2.3640306047400204 4.2311225111244593 36 37 41 0.53228073118103914 6 1837 3 3298
3003 -3.8359786003966247 0.92379423492582213 5.2689848202001111 88 90 89 0.13892889105255091 17 2486 7 1124
2188 -3.6857303243806836 1.3222685906189382 4.5455083159248328 44 52 55 1.8005875529079436 16 656 8 626
5515 -11.262941176021195 5.4743506438101885 6.2837066850030494 191 188 185 0.10757463398321769 9 113 10 139 11 141
801 -3.7684212293270694 2.3711739046534959 5.0893870264485894 68 77 74 1.9006176969494724 6 2614 4 1676 5 2514 11 2378 2 3954
3090 -3.8002906902514391 2.5838216991930731 5.182190108883364 81 90 87 1.8614656752074914 4 4742 16 2420 17 4175 7 2171
2235 -3.9839318725877719 2.7531569003816725 5.0968895948054715 22 29 25 1.6753545878563152 17 3029 14 2464
3344 -4.2024851900699511 3.8522555792976099 5.5656728268977309 149 146 137 1.6221926059845522 16 2054 12 1890 14 2203
2512 -4.4930447769256938 3.1771611532564306 5.5950306990019776 83 89 87 2.5982705288590875 16 806 15 567
889 -3.2376087749678923 1.3541689128403802 5.0819250860350431 32 32 32 1.2885640615963596 6 422 5 2405 4 3366
5603 -4.2151202313269449 1.8550597832670794 4.6179706271178658 28 30 29 1.2183396874097721 11 842 10 811
4473 -3.909949466527574 2.385166807426673 4.8849311436679868 0 0 0 0.089721298628298599 13 523 15 424
2255 -4.1253242633052576 1.2486865235748967 4.6851786835003821 55 45 43 1.8315031688272494 17 3195 13 912
1064 -3.7848394251452282 2.2212886866795665 4.9820364493330382 151 157 155 2.0566620330059742 1 447 2 415 17 252 16 267 15 213 12 271 14 312 13 319
3282 -3.9529460598161763 3.6223086702784566 5.6940758484545748 55 56 51 0.98815344950351014 16 2491 12 1294
1930 -4.122146141895433 1.9630943680643738 4.3784939289768641 69 74 70 1.3518237010033078 1 3448 2 2482
848 -4.4944371015787477 1.5278374571911109 8.7761624087634882 6 9 11 2.1544385167694813 1 3211 4 2449
1926 -3.9369761754810573 2.6775419376573022 5.0956816038873338 178 192 192 0.5265220865879463 1 3256 17 1993
1924 -4.0046331074542731 2.669800643739018 5.0079909943973302 38 47 46 1.3358914697837829 17 1987 16 906 15 1623 14 3136 9 591
4281 -10.679389414133738 -0.17787751131109689 7.9509279068105823 123 108 100 2.4311101757085045 14 4780 13 2805
842 -4.510617520460058 2.8711097460098967 4.4486771099077149 57 61 60 0.84707919399094322 6 606 2 3641
3199 -3.1027506854659488 1.6066495302888177 5.3556072403124393 28 35 33 0.52210785684558958 12 317 14 1320
1923 -3.441610831721142 2.0005009881423441 5.22970223428681 79 95 94 1.5035426928301321 17 1986 15 1679 1 2527 5 770 8 803 4 1872 3 1643
840 -3.6783012097731431 2.4024304487624639 5.2108221006696454 171 180 177 1.6496466052669354 4 2328 15 2392 3 3589 14 4985 1 4438
1933 -10.054619231408548 -1.5353738290639503 11.239579740428159 82 89 107 1.0534447602543457 3 1530 17 2183 4 1112
4290 -3.7810724993378533 2.3006350726475846 5.0434299402692817 28 38 36 1.986697320964723 7 94 15 108 4 152 5 108 14 97 13 116
824 -6.9478586284751849 -0.89624801121782516 10.663355048305334 186 187 183 0.10169204493977574 6 3220 4 2041
1904 -3.5376385962828056 1.3641664722619669 4.7298167345104503 0 0 0 0.026587653284111976 1 1397 6 2531
4261 -4.8180218512286004 2.5433370233386112 4.5060772184988895 49 51 46 2.2480319381235274 14 2271 13 2609
822 -4.2373319059868688 1.2434596160854765 4.0571842141787871 36 34 37 1.7132992990260743 1 4740 3 962 4 2015
1890 -4.0817143148659083 1.8478047598395728 4.3718823985523407 68 69 63 1.9412578856071299 1 3469 9 1807 11 1318 17 1499
4247 -4.7887418934049402 2.7238806625717356 4.0785549733519861 199 194 190 1.0655709746190789 15 382 13 2421
1889 -4.1443707704238095 2.0015203923034091 4.4019090157513521 40 43 42 1.6406831466229359 1 2585 2 3578 17 1469
807 -3.6524137758593329 3.0732690706128327 5.6956438514159968 50 58 53 1.5847283171998408 1 2402 4 1791 2 2428 17 2748 3 2415 16 1635 12 1279 14 1367
1883 -3.7533220397462062 3.1682571845651291 5.634037051169412 200 211 211 1.0486695138983457 17 1326 15 939 16 817 7 670 12 1287 14 1363 13 1056 8 811 9 785 11 878 6 576
1881 -10.362536431518285 -1.2331420364767505 11.215389682294997 118 122 134 0.43007353596425668 4 1080 17 1215
5718 -3.5168658648314763 2.1980063152230636 5.278143599024256 10 12 7 0.58464447317941914 16 1148 13 1259 9 983 12 1953 4 4563 11 1335
3361 -3.5622537149077145 3.2438387707445218 5.9182736323843956 113 113 111 1.8003213479253597 12 2000 14 2149 11 1442 9 1479
2252 -4.8928415632252831 1.2235356192724605 4.9611251761554263 32 25 23 0.3752349436354192 17 1123 16 1295
656 -4.4424000079973025 1.0413307564285468 4.1148493730991591 239 241 237 1.7424007325436293 1 4656 5 1644 3 3484
635 -3.561055926994245 2.9441665585358261 5.7433736539844373 55 61 59 1.4745456723341928 3 3153 4 3162 12 2784
4104 -2.9786995822924975 2.6990659520786835 6.1927169132099387 0 0 0 0.6761422483301831 12 1972 15 1581
847 -3.2033318448122099 1.4736770356697866 5.222915994364695 81 85 84 1.7112847915282998 3 3262 6 752 4 2434 5 1425
661 -3.5903440461216198 2.3043824756590112 5.2676871238003686 163 172 169 0.89859519137859079 3 3568 2 3994 15 2274 4 4195 6 3068
2257 -9.6237793907332456 -1.2246520441504309 9.6459038748462014 141 137 136 0.71979161199699426 17 755 15 1894
3366 -3.3510174620537856 3.0433596557027003 6.0280113926048955 112 113 107 1.2240957455671722 16 1770 12 2033 14 3192 9 1487 17 2022
669 -3.7224618134389611 2.1894289975585517 5.0388646989683021 65 74 71 0.90900614304294536 1 3163 3 3614 2 3940 8 2098 11 1532 4 3493
670 -3.9453722257205714 2.3212973645624753 4.843132710289213 49 60 57 2.1784194531737153 3 3616 7 578 12 1497
673 -3.6007022535300282 2.9862470560255914 5.6978243012073015 33 40 38 1.7065016839732277 1 4295 3 3646 4 4584 16 2699 12 2914 11 2252 9 2094 15 1669
676 -3.5630400588035664 2.9545013160011124 5.7173020650490614 52 58 56 1.1391219392800045 6 3253 3 3656 15 2330
5390 -3.7582852135669933 2.2516444657243393 5.0152535438902763 68 70 67 0.88791922721179128 7 1684 9 1578
4389 -7.768503140866617 1.5134854359051968 4.3860738852560326 0 0 0 0.28865322215761036 12 2759 16 2623
2171 -1.0909185035860967 2.7271566765671889 5.6722832770533396 213 211 198 0.91123317281362515 16 409 15 414
1062 -9.585653106859203 -2.3655682222986885 12.722273447419797 108 103 100 0.3510617675964911 3 284 2 391 4 283
5776 -5.0696621426447637 2.3385024492939892 4.3820913078931358 50 51 46 1.3563728621201123 9 2129 10 1333
677 -3.4745859131199275 2.9235316061541936 5.7995788396159886 55 60 58 1.6399729567608401 6 2592 3 3658 5 2894 14 4909 8 2182
1110 -4.1481054258253849 1.2688980231883524 3.9877418039994961 35 29 29 1.955358733053647 4 561 2 778
3328 -10.939842555469342 -0.50047416048425153 7.0043270458652396 169 157 133 0.36812868459683318 17 3899 12 1726 13 2263
5546 -11.645225583456671 5.2728767286673124 6.5449025032331614 198 189 191 0.59874643069698041 9 292 10 355 11 266
3189 -11.979820483804804 2.5001110083765155 6.9526441490396245 181 134 100 2.2651769566198858 14 235 13 435 12 233
2273 -4.1703442933853632 1.0774151236072578 4.4288806559130984 11 3 2 0.14770606202793929 17 2520 16 1551
3382 -4.5389083738191554 2.448460524983938 4.2415053777392178 44 41 34 0.20479249308637967 16 1069 12 2233
1025 -5.3507394541308475 -2.1949833463378861 11.449545642495957 240 237 232 0.80528293912755911 1 118 3 142 4 125 2 191
685 -4.30860595710329 1.9764628331210448 4.1642608222153399 26 29 34 1.5985299913107738 6 1045 3 3754 4 1845
3390 -3.526702470675342 1.360404434575285 4.6978771169107265 41 41 39 0.94417933332571191 16 688 14 1699
690 -4.5937592706278858 1.3038724670200825 4.0190963119956189 12 15 16 1.372478048757112 1 3734 3 3886 2 3907
2091 -3.3289778338027016 1.2404871523318759 4.8932890015527484 0 0 0 1.7484425560791879 1 2468 6 1379
1090 -3.9836059530260508 1.2780186875921584 4.480078321415756 81 83 82 1.9450966868623534 3 1367 2 682
3447 -4.5966715998024439 2.2918454493892511 4.2377264514888724 57 46 42 0.4529481095040695 12 2850 14 2521
708 -4.2432853430666588 1.1205680633027095 4.1507628281667204 33 32 37 1.00595620889752 4 1957 2 3106
2346 -3.1339819677132068 1.4161884383890011 5.187490021431743 21 27 25 1.8866257816707632 17 175 15 998
3455 -3.8142233314690754 2.5752289806868398 5.1671186381955359 36 37 31 0.51202555504897251 2 4394 12 2936
750 -4.4394486228331482 -3.9854681538078021 12.49251896563057 124 113 117 1.7741503895661734 1 602 3 346 4 388
727 -5.4604163460284285 -1.9624320598689915 11.294051245455739 236 239 232 0.67820569843591294 1 156 2 204
5441 -3.7174227795478312 2.3881634255872002 5.1706532675838837 6 14 14 1.934105434558276 2 4049 4 4198 9 2061 17 3095 7 2433 15 1681
728 -4.5254936682710927 -3.7620065147315369 12.317421099718064 162 145 137 1.2996267064968643 1 119 3 146 4 135
739 -4.5101755563542367 -3.8758665123351967 12.255691489256817 114 102 112 0.73526631052092439 1 603 4 282 2 719
2335 -1.4774342677182706 3.0815347727584643 5.4874024621733577 136 128 113 1.6764417951246915 17 4104 16 2112
3444 -4.3491249090837139 2.0559925224746558 4.3026501286919752 105 96 83 1.0161938284018663 14 79 12 118 11 1332
1087 -4.1119869872541726 1.1813483193850409 4.0798705663109374 23 23 21 1.1011286329835945 1 556 3 333 4 313 2 642
740 -3.6827225369605086 2.1355776790691068 5.0523380215587999 160 171 167 1.7218556377834042 3 304 6 243 4 286 5 254
5454 -4.2461159140675075 1.5021884813881241 4.2386065405434783 31 31 31 0.62514436362524273 8 463 9 234
3445 -3.4829641324849039 2.9228951038693856 5.7924563136834406 34 36 33 2.0415540619566608 16 2683 12 2824
1088 -4.5081535390402063 1.1156090864519856 4.1559318120263065 34 25 30 2.4285083874898481 3 675 2 660 5 385 1 360 4 479
747 -6.6235727306226471 -1.0156493525591028 10.692818037572541 205 208 199 1.1324825306305457 1 273 4 354 2 477 5 332
748 -5.3637646435357649 -2.8130713937411658 12.170634811296441 173 147 132 0.63231931239617045 1 627 3 451 4 363
753 -4.191553564845294 1.416217539982483 3.9346270831618346 29 29 29 0.71116048504631846 6 2374 4 439
754 -4.2455680178835422 1.287241966169373 4.6648519584639656 38 36 37 1.8205201831831395 1 370 4 500
757 -7.334740832397479 -1.4938368527747494 10.535169565231802 153 161 164 1.4584725528234905 1 415 2 539 4 535
758 -4.3167835692057217 -4.0944181417959884 11.918395242325429 177 171 164 2.0194300650826364 1 616 4 651 2 696
5472 -3.4590556273851254 2.2693008473054954 5.392683054000182 64 66 63 0.20605354365098755 17 3518 9 741
763 -4.4156234218859325 1.4957356473958645 4.2496176159564749 69 72 70 0.71994601582504814 1 4510 4 789
