# 3D point list with one line of data per point:
#   POINT3D_ID, X, Y, Z, R, G, B, ERROR, TRACK[] as (IMAGE_ID, POINT2D_IDX)
# Number of points: 335, mean track length: 7.1168401595485946
3865 -0.20928415298894762 1.3414185650357489 2.4461487672678257 77 72 54 0.29008439178651857 53 599 45 774 64 638 81 779 99 1661
14039 -0.46430640109298937 1.3567669006891081 2.3374091374789105 98 65 19 1.1847104999250782 69 1108 79 1348
3766 0.42118695719074184 1.2431014228240322 2.377834111594991 210 193 115 0.077281514693404857 53 294 45 282
15555 -0.30556153384766016 1.6533201653632943 2.264819584356931 0 0 0 1.8611805387244893 47 1237 52 316 94 561
10468 -0.032474193303989818 1.4578050602295018 2.2729639137294342 141 70 28 0.5017301696218599 51 185 34 393 44 417 75 266
5381 0.0013308473485202758 0.78374293412959095 2.6253087022071795 238 227 209 1.4302134418776908 22 830 31 752 4 1142 48 740 21 415
15460 -0.21097624779741853 1.591855509733745 2.2230201203205509 205 179 60 0.23859400046299137 39 1296 47 1362 61 1003
10373 -0.61350742569633565 -0.051566577123997648 3.4384125227430298 0 0 0 2.7815259385212165 76 348 34 182
5286 -1.0984939011398109 0.78869009548720004 3.0988386230318432 158 89 39 0.74233743351204018 81 699 31 328 56 277 4 228 48 493 26 934 59 418 73 388 58 364 43 364
15559 -0.18497369670088901 1.1702314508993548 2.523365391503587 170 97 24 0.27203472611130469 39 1162 47 1201 61 1154
199 -0.86010848100993842 1.2071555758071253 2.3885078546295961 178 123 81 0.81256281205867364 89 775 55 487 72 770 28 1136 57 1175 69 318 17 346 17 1066 11 1253 79 606 29 654 20 1017 82 354 16 1077 5 305 5 546 8 1258 49 304 47 517 39 1254 50 422 84 682
10472 -0.10147089514476099 0.45443348818758428 3.4159227043939775 0 0 0 3.1572892385521065 34 5 51 6
3780 -0.17081680608136379 0.85441068012929544 2.5645093880994914 223 207 62 0.16734352620379714 35 671 45 358 64 267
15565 -0.90760174801643212 1.3563806297625063 2.4177445738304542 224 123 55 0.2357741756826979 49 410 61 1211
5292 0.37049803010233329 0.80794603478029725 2.6110275534573262 220 160 36 0.60435649277946391 81 345 31 352 4 367 48 403 26 356 27 168
10478 -0.65430725152412095 1.4982626660909351 2.3049596779162256 105 25 14 2.3278908740601598 34 24 44 34 75 31
5391 -0.29684252186306975 1.1308864388569895 2.4661363758081962 221 197 96 0.15533139493898238 22 479 31 822 56 449 4 857 48 796
3782 0.26893906901047049 0.67376456111447314 2.6458111307046002 120 38 28 0.36367246517163021 35 345 45 372 97 585 63 709
15567 0.40455206698069301 0.8879111790719677 2.6689518935864647 149 94 12 0.56224094516947754 55 672 61 1231 50 808
5294 0.53489084662754083 1.2079155911223534 2.3931698794625769 170 99 42 0.26968874188952474 22 588 31 363 56 544 48 347 26 345 78 277 62 376 80 329
10480 -0.34300907547199155 0.3199582741467954 3.2946271286722322 0 0 0 0.1532246875711219 34 58 51 45
5393 -0.33684793115568284 0.7389661425991525 2.5796845596115707 165 136 35 0.44557528805743191 22 890 31 830 56 801 48 811 4 773 26 960 21 824
3784 0.32358177360615703 0.45947175254804151 2.7670240895023097 104 52 17 0.20471899778976313 35 715 53 606 45 375 99 775
15574 -1.0410278740689747 1.3107635926450254 2.6014011658461746 181 145 60 0.5014519243050386 5 1335 55 1183 93 995 94 1084 19 445 70 544 25 383 52 691 49 1039 61 1124 84 916
5301 0.16966034503440949 0.69240864821618531 2.5927978628325583 234 228 165 0.45795655725387258 22 425 31 386 4 356 56 424 21 259 59 269
5400 -0.22990612303987404 0.87568048178477909 2.6010811656078081 202 147 105 1.6959183386641488 22 932 81 1510 31 864 56 1252 48 842
15478 -0.10010647866685253 0.69565317655886938 2.6284709298557165 206 162 48 0.88335308631580789 39 737 47 774 24 319 35 669 45 697 97 354 63 371 9 1072 99 467 41 799 40 376 89 964 55 532 92 809 57 426 28 645 96 975 69 767 57 1204 11 384 79 795 20 824 82 672 16 606 5 922
10391 -0.19365934526104087 0.82492157717612113 3.0104784146481003 67 42 12 1.551774382604328 51 571 34 249 75 193
5304 0.22261968504761093 0.8404273264283928 2.5841159552064661 225 205 113 0.1718306521313242 22 427 31 393 56 380 4 354 48 354 26 239
15577 -0.3699965038662924 0.9224886596161318 2.5442965180620769 211 198 122 0.3213963585723888 39 720 47 451 61 767 3 494 88 397 37 392 14 345 6 294 7 428 76 373 12 385 85 558 93 384 42 528 54 1060 94 649 10 386
15579 -0.45348249872065582 1.7699989577681261 2.2511677948564155 231 202 76 0.60208215995402892 70 199 25 212 61 320 89 213 72 384 29 601 39 352 47 370 12 923 93 739 42 744 54 643 94 1137 10 607 19 399 52 185
5306 0.2879472418972156 1.1515377009059282 2.5398730343785991 79 50 51 0.22550683457481635 22 384 31 398 4 404
10492 -0.32625393915839973 1.5974719799618406 2.23989343953646 100 50 22 0.10092694709820925 34 128 44 127 36 121
5405 0.25349535424620551 1.4344487716657506 2.3084929456529379 235 211 93 0.20028472858185331 22 1398 31 894 56 1160 4 1226
3796 -0.34211903655923315 0.46163683377765652 2.9761923541822002 54 22 33 1.0670714861510218 45 429 99 854
3798 -0.81641371187587053 1.5313978351024071 2.4410680041715787 234 207 67 1.9728443297857872 53 288 45 433 81 334 64 1121 22 539 31 473 99 161
15583 -0.17519810940883354 1.5978996740613607 2.2175749289064925 169 63 17 0.67918138939135253 85 602 12 634 93 582 42 588 54 724 94 544 10 513 7 722 76 675 19 765 25 638 61 703 41 1301 40 1367 99 661 92 633 57 645 89 501 55 730 72 911 28 490 96 628 69 899 69 1463 17 661 17 1530 98 652 11 793 79 487 29 812 20 1343 82 1317 16 1018 5 833 8 821 49 1068 39 483 47 668 84 696
5310 -0.37326136697146417 1.1253798243776543 2.5323083298993154 111 72 31 1.2562008053150056 22 216 31 421 56 319 4 291 48 143 26 205 56 285 21 209
5409 0.58702492752908886 1.2821631551617285 2.4152264662202492 232 203 84 0.54464756337900588 22 1265 31 902 56 1273 4 1390 48 682 21 1271
10496 -0.12165671943545518 1.3044637198168505 2.4724373009889389 0 0 0 0.034880483208492283 14 181 37 285
3799 -0.45181676169619728 0.96895638033440457 2.5305357946402447 161 95 60 1.7830455919308921 24 698 35 984 45 436 81 848 64 218 22 164 31 228 56 838 4 212 26 748 78 495 27 586 62 614 33 560 67 594
15485 -0.14322838875783309 1.4132201932679089 2.3445893555147461 81 49 47 0.97501118579475665 85 210 12 420 93 515 42 604 94 510 10 380 19 647 47 978 89 474 72 334 28 1180 48 445 26 420 78 454 35 792 45 376 53 391 64 430 81 387 22 321 31 420 56 1190 48 1008 26 754 21 983 62 670 33 650 92 540 69 502 17 544 98 560 79 277 29 229 8 815 8 1301 39 369 49 1152 47 255 61 1053
10398 -1.0673261075292975 1.2815700204640339 2.6598503588261062 197 171 78 0.40154723982003371 51 299 34 267 44 271 95 231 75 194 36 304
5311 -0.45489111022256679 1.2182198956040124 2.4274550082634132 229 213 126 0.075828007736684883 81 453 31 422 4 730 48 665 21 663
15584 0.17902412315822466 0.48157480601847619 2.7143001456464466 107 58 24 0.35109003102009151 55 227 49 592 61 422 42 431 54 317 94 434
5410 -0.65321092807044345 1.4188121423036204 2.4145227880093922 235 208 100 1.504487738116129 22 949 31 903 56 366 48 372 4 336 26 788 21 423
10497 -0.49859327216985366 0.88615948762102059 2.5140575269291205 200 186 92 0.85364042670437257 34 170 44 179 75 178
15488 -0.045876992507364898 1.4177874639001278 2.3412878815083769 84 61 29 1.647900543734385 28 714 89 658 79 1370 29 1231 72 1377 96 1514 79 486 5 1109 8 1317 39 1074 47 1088 12 696 93 875 42 934 94 639 50 801 89 472
5314 -0.38320959534505494 1.6047059450368655 2.2998869236475072 219 114 62 1.6615725874074228 22 875 31 437 56 465
15587 -0.98468138102143365 1.1271729983230581 2.4922554014557035 203 185 91 0.26125104573617919 70 428 52 147 61 500 77 305 15 474 3 354 37 511 14 325 6 275 7 270 76 488 51 220 34 286 44 291 86 224 95 202 85 510 93 469 42 470 54 541 94 327 10 300 19 272 75 124 36 216
15588 -0.4108018022401364 1.5263641368516347 2.3185740110134319 137 59 39 0.46024351032177974 39 332 47 353 61 352 54 395 94 203 70 162
5315 -0.7296010503358562 1.3711553114208526 2.3622193739966555 222 201 106 0.13157070737316026 22 519 31 445 56 833
10501 0.22979100266557265 0.70612901571540221 3.1450777212476893 48 69 95 1.7840752129125967 34 290 51 205 44 209 36 45
5414 0.63759960106637714 1.1669353796668971 2.4219033366718752 213 190 79 0.27955391131061458 22 1277 31 919 56 899 4 912 48 692 21 684 59 672 73 576 58 1053
15591 -0.17339316092539989 0.66348613452172711 2.6143997639724739 106 38 16 0.21453004118837582 39 474 47 787 61 871 12 411 93 630 42 646 54 749 94 782
5318 -0.26396182989902883 0.91283460422396556 2.5555457613432715 243 239 203 0.70559682907440457 22 478 31 462 56 477 4 448 48 854 26 790 21 809
10504 -0.34867292699785973 1.5923355148906557 2.2631460888564408 249 247 241 0.2890590321145326 34 219 44 224 75 121 36 229
15594 -0.92821217280898827 1.1105096096523746 2.4685853253943346 160 76 29 0.71772937614266585 89 541 72 750 96 876 28 646 69 925 79 588 29 454 55 727 82 989 5 769 8 281 49 461 39 501 47 406 61 355 70 399 52 212
10507 0.47428948252712494 0.9341786840706463 2.629057795377058 171 102 76 1.3123535365708487 34 246 44 256
5420 -0.57556849611635941 1.5185723208991999 2.4038316877062984 219 184 62 0.58154257977774004 22 976 31 953 56 939 26 928
333 0.33431744251866485 0.65755024979722565 2.730499578293804 52 45 28 1.9919778068601082 89 9 72 11 28 13 96 10 17 14 29 9
15596 -0.34276494722872231 1.6679879149014065 2.2056725599239346 216 192 77 0.2112168681176278 89 1299 55 1106 72 1356 28 1474 69 1436 17 1463 98 1459 79 1305 29 1304 5 1210 49 1118 39 1234 47 1294 61 1209 12 900 54 1189 94 912
5323 -0.87437405911439681 1.1167083837015366 2.4290072565766048 20 9 4 0.63116751051020537 22 502 31 484 56 499 4 474 26 222
5422 -0.53595437265010981 1.3496573609153912 2.3328513994099835 178 46 2 1.5489963848587691 22 690 31 962 56 861 4 683
3812 0.76810134176592082 1.1255991940567356 2.3934028547611743 221 159 48 2.2354808278526233 30 156 45 496 64 862 82 1402
15498 -0.5170875187387417 1.7900150618603483 2.6140363241830835 192 140 71 1.422994897896575 25 37 55 55 84 48 50 68
10411 -0.40331410472948748 0.24159482528716583 3.3391099099664658 106 115 123 0.78405440936345872 51 227 34 326 44 269 95 182
5324 -0.90861123636761043 1.0683067535568818 2.4783510416968455 124 72 28 0.20423512646606853 22 339 31 485 56 355
15597 -0.34320974640770796 0.26883424874287587 3.3742672419232482 35 14 10 0.96882764174988623 55 160 79 415 49 124 47 289 94 894 61 603 93 301 54 402 10 467 12 198 19 390
15598 -0.85713972493668811 1.5089908172696633 2.384572029316673 231 180 36 0.34616336712459894 38 272 55 558 65 363 49 655 61 635 70 368 25 332 50 409 84 329
5325 0.39142400689950541 1.1310306757092552 2.4846325254591766 144 129 39 0.32902939726574998 22 551 31 490 56 702 4 693 48 648 26 690 21 715 78 997
5424 -0.58600123174010577 1.2892394573059365 2.3983247513144628 220 197 97 0.19224346324426289 22 1308 31 972 56 942
337 0.58869305028496033 0.76362069461170345 2.7131426132313066 48 43 38 1.8748257379450055 89 14 72 17 57 8 98 10 79 13
15599 0.09785729143353776 0.66067349490955452 2.609428790458443 91 48 43 1.2655842845092913 12 130 93 80 42 160 54 154 94 156 10 127 19 220 70 131 25 187 61 138 39 141 47 146 50 832
10512 0.22974605654810779 0.63832699094774437 3.1157814235199486 47 30 13 0.74215115975726609 51 312 44 306 86 523 75 170
15601 -1.0531069166473532 0.7920000711077676 3.0630698792078483 182 136 55 0.29746085607132716 39 609 47 605 61 696 85 1089 12 746 93 1017 54 678 94 862 10 835
5328 -0.55651889804649535 1.2971825887490618 2.4945958815408882 182 92 42 2.0810732418854814 22 467 31 502 4 278 26 231
5427 -0.88777713331878749 1.0823951687220075 2.4612807893485571 170 88 34 0.19956403379681087 22 1003 31 992 56 668 48 977
340 -0.82817696106705108 1.4798769374848875 2.3852433838467415 235 204 83 0.68803544673825079 89 18 72 21 29 39 8 54
3817 0.051227984561485876 1.3837481747481046 2.3638954444821039 100 114 71 1.0467276119775906 35 1215 45 518 64 243 53 548 81 248 22 285 31 277 64 393 56 292 4 223 48 263 26 258 21 218 99 550
14090 0.47672466547945153 1.35071265235014 2.3903388043447396 163 130 41 1.4994561143684562 69 895 79 1404 40 1412 100 888 53 1596 66 564 57 1605 92 1540 96 1525 29 1226 82 1093 8 809
15503 -0.64973679653102701 1.55928918268383 2.6382832021688194 0 0 0 0.91163879774431655 39 66 47 44
5230 -0.65132970133055978 0.74964141235829662 3.1387716283754479 49 37 22 1.1416506380312594 31 114 56 148 4 98 48 151 26 95 22 173 21 131 67 530 59 123 73 130 58 150 13 66 43 94 91 54 1 50
10416 -0.37694466610034394 1.6006347881847764 2.2838386283829211 131 26 15 1.6560578843741742 51 518 34 344 95 153
5329 -0.67769249720598879 1.4285718090054764 2.4040585214023111 233 207 89 0.26335561152789638 22 526 31 508 4 491
15602 -0.47578718203106063 1.7416321335626892 2.5046260721769547 235 212 102 1.009471954965399 49 80 39 153 47 158 61 79 85 200 93 118 42 82 54 85 94 92
10515 0.073736601981598787 -0.015518686806373163 3.5401626418753489 90 82 65 2.4080665071641691 6 308 44 342
5428 -0.96379332799441075 1.1220647389089808 2.4810146939888984 141 76 31 0.16784277432113628 22 845 31 1000 56 686 4 720 48 948 21 934
341 -0.49510589543208722 1.3883374862916613 2.4486040310342618 52 23 10 1.1777586313852717 89 19 72 22 96 380
3818 0.25436285504131018 0.95789076061014622 2.6345540019443439 150 102 20 0.51280597972686282 35 567 45 520 64 1481 63 1056 9 896
3823 0.076510436621368319 1.0214876721529009 2.5783259786511148 228 203 85 0.33637067838999579 35 237 53 396 45 548 81 594
14096 0.64412701143139472 1.1519426699888242 2.4283888746016862 105 88 31 0.67108249249093888 11 176 55 204 69 146 45 115 64 106 81 151 35 132 53 135 63 133 9 121 27 118 99 142 89 151 72 172 41 206 92 132 57 120 28 147 96 157 20 140 79 151 29 168 82 193 5 163 8 165 39 200 47 268
15608 -0.85530643562844699 1.0377628536840293 2.4785484931371102 188 158 51 0.36628062082890439 39 592 47 691 61 1088 93 709 42 765 94 922 19 617
5335 0.44651445505605114 1.1728622334464982 2.4693077986552092 58 15 6 1.5321187937579186 22 548 31 526 56 550 4 1335 26 357 78 278
5434 -0.79931222948840297 1.0107602649766432 2.4816906013491948 121 70 24 0.37466854518363268 22 1036 31 1018 56 988 21 954 59 861 58 892
3824 0.24563453455348092 1.2061843793243012 2.4564056160311063 128 136 78 0.5177936158515869 53 445 45 549 64 600 81 616 22 716 31 813 99 615 92 618 28 446 96 725 69 664 98 1304 29 1380
15609 -0.89082435100053992 1.2506433458511055 2.3702908560055755 237 201 164 0.31270201822567123 39 1291 47 1261 61 1020 12 1097 93 683 42 678 94 631 70 709 25 603
5336 0.41219540638213353 0.74484292897606386 2.6267184766663152 227 190 64 0.19544177729492473 22 437 31 527 56 555
10522 -1.0178927238481197 0.85041656182259417 3.048286445216982 209 166 65 0.2647630627910823 34 401 37 503 51 461 44 416 95 529
5435 -0.81594162366445344 1.0348201841798903 2.4866890256958993 201 166 63 2.0070791389999183 81 1010 31 1020 4 319 48 319 26 465
3828 0.21313469637212779 1.1926559712591558 2.4791519692980208 152 141 77 1.1080980242671352 53 545 45 568 22 445 99 1403 82 1191
15614 -0.75978308801575734 0.97866141605721357 2.4839998245418613 179 140 51 1.5967192724561323 39 1012 47 621 61 1056 6 900 7 859 76 1037 85 999 12 931 42 1082 54 1024 94 1022 10 804
5341 0.85213475790374071 1.1535900079809616 2.5813299729451082 154 76 28 2.3233180217936127 22 570 31 552 21 837 48 366
10527 -0.013014293762994605 1.4249583277559752 2.280663448511302 135 73 27 0.30888538176911434 51 195 44 448
3831 0.3906339439071464 0.8978974024421168 2.6580359032263536 137 87 11 1.5280421178142942 53 845 45 582 99 649 92 757 57 617 28 787 69 576 17 805 98 742 98 1069 11 1306 82 967 16 622
15621 0.13745075488542788 1.2857049990791873 2.4212377218919219 96 41 31 1.1179629508807927 5 1199 55 1074 49 340 39 541 47 762 61 760 85 326 12 282 93 289 42 378 54 301 94 382 10 370 10 667 70 645 50 478
5348 -0.055429929965929395 0.94162359310725963 2.5834659185224438 91 58 33 0.47945191395170905 22 611 31 587 78 744
10534 -0.87320607475945045 1.4616593921173291 2.426480587160734 188 99 31 1.9459426382675891 51 573 44 499 95 408 75 326
261 0.54769772409621509 1.2652665530768752 2.3855129138286184 235 215 109 0.50838780540534956 89 1111 55 1061 79 1339 5 1123 39 686 47 807
5447 -0.41889244325217756 1.4608007553822167 2.2948687869501803 226 232 214 1.3714168423900286 22 1119 31 1083 56 1056
15624 -0.89133882117596053 1.518128487059347 2.4567732851986332 230 171 27 2.5239742485744121 93 694 94 754 61 1167 12 747 93 486 42 709 54 1154 94 348
5351 -0.088028392281169515 1.6222814417740297 2.222726636509091 232 205 77 0.16421329682898339 22 516 31 599 4 821 48 805 26 778
5450 -0.50472257206688975 1.45791002451927 2.3845971687850742 168 70 17 0.30906023084184792 22 1097 31 1104 56 1078
15625 0.16863838833315553 1.388465476195361 2.3013573422510381 199 167 46 0.16018317750061223 39 1034 47 1197 61 933 12 860 93 792 42 784 54 894 94 850
5352 0.22139716041152682 0.86309015580444981 2.5828760571828657 224 178 55 0.27234056659992883 81 637 31 604 26 580
15529 -0.64902689994124085 1.037264138009236 2.5037926626488862 173 137 31 1.6449332026910444 47 1079 61 512 50 758
10442 -0.86929528607078432 1.5293537220939402 2.5697717566762623 233 204 74 1.8884543798055935 10 889 34 563 75 322
5355 0.14376606705342532 1.4156239441391989 2.3092368224899311 216 176 56 0.057842873452961775 22 629 31 615 56 593
15628 -0.44177375045755846 0.81772675717687204 2.5401131959658656 165 87 35 1.4869412936284996 93 887 54 1066 94 841 39 936 61 907 89 916 96 985 29 1157 72 955 8 872 8 882 39 913 47 728
268 -0.77915162506880664 1.3164160003031913 2.4015856746596231 111 55 33 2.1196589937525716 89 1145 55 273 98 1278 79 1378 5 314 79 1372 49 427 84 495
10541 -0.63432023482252053 0.96337339556015256 2.814039782794874 72 32 6 0.28884494912427855 34 630 44 519 75 284 36 193
3848 -0.27755333712955482 0.89383735166117206 2.5513804986452513 233 225 143 0.56592777034829278 35 697 45 713 64 775 81 433 22 468 31 466 56 480 4 449 48 879 26 421 21 825 78 579 33 333 67 464 59 1087 58 827 13 685 43 720
15642 0.27076935913210903 0.62342768861206965 2.6540656588999414 91 44 34 0.69356681970063927 82 867 61 586 93 610 94 810
10555 -0.63509736406284734 0.97264119003216987 2.8225614894339031 89 49 15 0.085325964556473274 51 657 44 603 95 469
15643 -0.61572088879656983 0.52351549089139215 2.5446793081580155 37 17 31 0.49863886795986073 94 391 61 293
5370 0.46620616266659293 0.78479628381148359 2.6464327948133786 226 187 55 0.37303378137677712 22 788 31 706 56 903 4 904 21 859
10556 -1.0433009805078444 1.2049673132173913 2.5956256457871842 122 63 22 1.5382897723639253 51 669 44 604 36 315
5469 -0.18885319930152464 0.654417921228027 2.6223631474807223 98 43 14 0.24341693327030969 22 704 31 1213 56 1128 4 796 48 1189 26 682
3859 -0.041037586408659212 0.76388116734564615 2.599128866542499 223 208 83 0.43555876146725203 53 901 45 759 64 986 81 902 22 612 31 584
14136 0.42850216447175704 0.69191448869158589 2.7333792813661293 85 84 54 1.383914353955034 57 733 72 264 29 138 92 1120
3863 0.033291852438162121 0.98450727755020462 2.5392852724870969 231 208 93 0.99217290262815339 53 440 45 769 64 672 81 1298 24 1019 99 816 41 958 92 1116 57 1248 96 1288 69 1226 17 712 98 1109 16 1060 29 639 69 232
3765 0.81754231633673868 1.044773973902366 2.8444095977822732 30 23 13 1.2081199876112163 45 279 97 386 63 421 9 393 27 783
14038 -0.19220513398789801 1.2907957269112544 2.4409808218671794 132 107 60 1.4649285427148033 89 1401 79 1337 29 1334
3864 -0.89912798721131115 1.1478993343320398 2.4404145665451806 110 39 19 0.49696961681828522 53 429 45 773 64 211 81 140
3868 0.29216125045239688 0.67292424858538291 2.6521141854679766 202 99 60 0.11956171607835643 53 975 45 785 64 870
14141 -0.88670234974171314 0.88662952223078229 2.5929501543133089 98 77 62 1.2184211551819082 69 35 29 214
15653 -0.034385946560134516 0.39683684062896324 2.8172121162291686 0 0 0 2.6587108095628884 70 4 50 12
5380 0.35593740827065157 0.77250099404021066 2.6099495588398547 224 199 73 0.10665326093405381 22 725 31 750 56 1260 48 871 4 712
3871 -0.14383098986064946 1.599870448576123 2.2158626857402202 210 164 45 0.21664557817003086 35 1227 45 793 81 822
5385 -0.053349301516668106 0.64165579626409008 2.6223863251747552 206 105 29 0.23300065695486818 22 1208 31 768 56 653
15658 0.56149251382533605 1.244589344326253 2.4200808809159291 0 0 0 1.8516247047916223 25 25 52 30 70 23
15560 0.041248726472836082 1.3603945707690708 2.3951725088986291 85 43 38 1.4332357596826488 54 1144 94 408 61 1156
5287 -0.66570158807200541 1.319965741124443 2.3902139088712779 170 74 36 0.27042832366697328 22 240 31 338 56 253 4 224 48 321 21 334
10473 -0.45959165661295415 1.9948645834474108 2.7935776586633532 157 113 78 0.36760476645147999 34 9 44 9
5386 -0.067166719726294372 0.72988931077976127 2.6498755079633018 176 71 27 0.42982756562130547 22 862 31 769 4 799 48 1225 56 642 26 1166
15659 0.34668462291969709 0.69532048721052031 2.6615887229893693 0 0 0 1.7940087237449807 5 13 70 43 50 37 84 44
3875 -0.35424138737208649 0.81248567921530102 2.5529142498866477 228 206 110 0.5681000991440357 35 684 53 462 45 807 99 482 72 950 92 430 55 678 57 1209 28 470 96 460 69 840 17 385 98 424 79 388 29 1153 29 1156 49 632 5 882
15561 -1.4012696022615472 1.5231127306788079 1.2849361322245783 135 89 49 1.1594267324484298 94 1033 61 1158
5288 -0.59504460592871844 1.3857939576728759 2.4266391856851031 234 209 102 0.63022938458267397 22 350 31 345 4 513 48 490 21 892
10474 -0.36395092596363671 1.8643314096088466 2.2562977164426306 223 184 85 0.75305606051309448 34 11 44 12
300 -0.3164836613001743 1.6725665360115936 2.2006627762428308 216 194 76 0.29344395502037535 89 1300 55 1104 72 874 28 1464 96 1372 69 1332 17 1474 98 645 79 808 29 1206 82 1240 20 1363 16 1150 5 631 8 1268 49 649 39 840 47 880 61 774
10573 0.75697161586230355 0.87598169711967866 2.6102923815969539 0 0 0 1.9028345964005624 34 43 44 29 95 67
3876 -0.29295242049644921 0.73449380989495172 2.5772337490880339 157 74 23 0.40837207546416304 53 670 45 808 64 485
14149 0.30347668877609302 0.99845459303122763 2.6327046594321759 139 65 14 2.7035898579032733 17 521 29 347 82 235
15562 -0.27349279385324787 1.6619050654000924 2.468530861379084 138 83 30 2.2121460173938026 70 767 61 1200
5289 -0.33252503946354028 1.9353740439992679 1.7764095919012222 241 228 184 1.8939746964477446 81 278 31 348
10475 -0.42026046545025192 1.9955742306333135 2.5889876174617705 190 149 90 0.59092773958290479 34 18 44 14 51 21
5388 0.069856766928796207 0.91860985612396251 2.550278830730492 219 194 106 0.26670376960256331 22 858 31 796 56 658 26 1040
15661 0.56750976209711945 0.73696194429972661 2.8791673476464359 0 0 0 0.52680144642612858 17 8 82 25
15563 -0.44451546863461566 1.660352047717325 2.4510924488070489 192 124 58 0.89815940492941293 25 669 61 1204 50 987
5290 -0.46403230316592359 1.185498003239442 2.4847748841019706 147 94 41 0.89469380091526785 22 143 31 349 4 140 48 171
10476 0.21877534616389172 0.41486924021176869 2.8690034909862425 88 58 22 0.516982208378301 34 22 44 21 36 7
5389 -0.28457010235245195 0.91968082409785612 2.5410479624904854 249 248 242 0.28922265300819883 22 1053 31 814 56 799 4 841
15662 -0.96464225771609957 1.3410263568028284 2.5492102857425589 233 216 125 1.537850818346356 5 154 50 63 84 46
3878 0.037899449918270926 0.85060040409082383 2.6146900113205769 115 43 18 0.63897013400844038 35 709 45 811 64 695 63 726 9 826 27 603 92 904 57 1317 28 874 96 1064 69 1094 17 857 98 717 79 1155 69 1093 55 776 82 777
14155 0.47168901397586394 1.3089783879290351 2.3619490568681387 236 221 134 0.38368500681553414 72 513 29 516 8 852 49 232 39 724 50 207
3882 -0.74690132032733614 1.0530237024771396 2.5169277226645148 119 86 44 0.40874357701983399 53 699 45 822 99 828 92 1061
3883 -0.11531290316691831 1.4163872734925478 2.3246007471320573 129 139 86 2.0749374918635426 35 786 45 831 64 1057 81 821 22 1251 31 850 56 878 56 1196 4 852 48 1004 26 1140 21 786 21 980
15569 -1.0030450620834443 1.3114759856889115 2.6232101990392502 155 142 86 0.98158366878751202 49 14 55 15 61 14 85 18 12 12 93 11 42 14 54 14 94 13
5296 0.54109665722272615 0.99647740725738476 2.5824316716364595 102 43 33 1.151623582423644 22 398 81 529 31 366 56 269
10482 -1.077851994383012 0.77632063253612638 3.1169495832783904 135 76 38 0.95983656579098442 14 29 34 49 44 45 86 18
5395 0.23576826835762904 0.86967410814159818 2.5842338877798823 229 205 98 0.14173311099578143 22 1362 31 842 56 1391 4 1344 48 1338 26 1316 21 1105
15668 -0.36846141842690905 1.4600533744766879 2.3347659714464579 52 38 36 0.45532815919672154 49 145 50 136 84 163
3785 0.081196332133520302 0.90936983709198327 2.5580625091413887 215 195 110 1.8290373300701905 24 786 35 1553 45 381
14058 0.42236234373954923 1.4177945041776072 2.4059500804709715 234 195 66 1.6451688759838075 41 514 18 633 100 996 45 1474 99 1629 92 1586 57 1573 98 1466 55 953 11 1553 79 1243 65 995 41 471 40 544 18 660 30 643 18 632 100 484 53 742 35 630 24 1062 45 1470 66 953 99 966 92 680 57 915 28 954 69 1346 17 614 98 625 11 899 20 555 20 1166 82 1373 16 792 5 1042
3884 -0.45214650347314367 0.66259645063084915 3.1770838660306477 63 22 20 1.285367332617757 22 168 56 156 31 101 4 198 48 196 59 94 73 65 58 84 13 141 43 172 1 215 91 491
15573 0.032066138653571025 0.56076102822185236 2.6757248641695033 135 59 15 1.8657285470941469 89 824 72 862 28 1539 96 1015 79 674 72 607 29 1111 5 1375 29 486 39 886 47 860 61 861 42 951 54 840 94 832
5300 0.096311690159165075 0.58639335790165148 2.6651086495771352 219 196 90 0.15259732693421815 22 405 31 381 56 427 48 391 26 392 21 419
10486 0.11888773120674959 1.1682441593053945 2.4949096676646376 104 38 22 0.28314132485775317 34 78 44 75 51 75
5399 -0.19245567534298527 0.8209226954519806 2.5910726780614004 165 145 73 0.49289590727348076 81 872 31 858 56 513 4 750 26 1115
15672 -0.46010954203261722 2.3743211008333254 2.2106482917806174 238 223 172 1.5228883185455626 47 373 50 146 84 211
10585 -0.95697923284330189 0.99333290090266246 2.2426965795394063 151 78 29 1.3601483346728034 3 849 86 138
3889 -0.19987805473486661 0.84322773941962104 2.5794357006382489 219 202 52 0.14435963625313369 35 940 45 860 64 786
14162 0.39326136010623197 1.0551196029433236 2.489186481046842 21 15 9 1.5634684404158572 89 793 29 580 20 305
15575 -1.0185864076663909 0.73889311829749549 3.0893889705828936 146 108 54 0.54332461096092388 39 544 47 314 61 557 68 333 32 330 77 465 15 450 3 368 88 380 37 356 14 239 6 288 7 248 76 252 85 362 12 346 42 352 93 351 54 388 94 372 10 316 51 151 34 143 44 196 86 124 86 216 75 145 36 78 87 419
5302 0.22121091344050212 1.4984220613015924 2.3179043742533088 237 207 79 0.37827902439936323 22 565 31 387 56 635 4 790 48 371 26 196
10488 -0.37936595368639675 0.4795345122446304 3.4062093126374808 100 92 85 0.46582008421897642 34 92 44 85
5401 -0.25401002444642012 0.85758912642415996 2.5704759230629355 211 196 79 0.4263537869314562 22 887 31 871 4 441 48 433 26 757 21 448
15674 -0.35004597140783472 1.6885301880569237 2.2002230010440491 204 136 42 0.13824772349692593 5 186 50 176 84 224
5500 0.20680769961664786 0.64484931684705282 2.6459656247057466 138 64 55 1.7227272107756459 97 206 63 234 22 1175 31 1390 64 1070 81 1164 56 1378 4 1340 26 1312 21 1273
15576 -0.32389450999500857 0.73741603596435468 2.5888580546212223 157 115 27 2.0813514586313286 55 158 61 125 17 202 69 72 98 226 82 165 29 101 5 70 79 80
5303 0.20324149041885894 0.85386050288070581 2.5773783697900994 228 208 104 0.15982727801955918 22 429 31 390 56 308 4 410 48 395 21 387
10489 0.42715477899878174 0.5193939345056241 3.0632342842002211 87 63 23 1.4578076096588577 51 73 44 93
5402 0.20691502166578762 1.2453293889458279 2.4320525513992375 145 149 90 0.48263835758459717 64 1472 31 880 56 1279 48 751 26 1105 21 780 59 704 73 631 58 1085
15675 0.18775643014275228 1.2662971871294602 2.4281373078336075 90 47 43 0.40579399345413353 49 161 50 214 84 723
10588 0.0049563882699946412 1.2064107511005924 2.4992633924896772 182 126 54 0.4250252306437261 3 511 14 275 88 508 86 241
414 -0.98862629513657252 1.4144363090892877 2.629383293705871 239 210 89 1.3784345073780315 55 74 29 80 61 152
3895 -0.59236052630418012 1.1810551911956089 2.4745675816255495 220 149 98 0.33294031086338799 35 980 45 905 64 500 99 1178 92 1133 28 1084 17 1009 98 1038 29 574
15581 -0.31013974323245758 0.93438391013721978 2.537679718719926 199 180 45 0.47935459566487987 55 398 5 333 49 622 39 1118 47 1161 61 371 76 312 85 525 12 387 93 393 42 531 54 561 94 412 70 510 50 566 84 410
5407 -0.26446287855975553 0.92725540478339485 2.5501864718041647 211 125 66 0.14511600121460022 22 477 31 900 56 479 4 775 48 1045
15680 0.74152640187749197 1.3284545962291692 2.7677026295591913 131 69 24 1.910986061459359 38 51 49 167 84 144
10593 -0.97359271842213546 0.76736349523267189 3.0594383552016717 112 70 30 0.34454604097308061 3 561 86 315
15582 -0.7806335789331752 1.1519026938174963 2.4120178052024381 239 229 109 0.54666571354629301 70 83 25 92 61 175 89 219 72 195 28 162 96 324 79 170 29 194 39 248 12 256 93 179 42 244 54 262 94 198 47 253 84 115
10495 -0.74546342115545028 1.0780540733867197 2.4580077255128852 82 31 28 0.19903619858218513 34 119 51 127 44 167
5408 0.82304719861550169 1.1542206401217994 2.5223462691207117 237 213 95 0.21685947297732355 22 1301 31 901
15681 -0.38384123796063374 1.2690819840266101 2.478907025461873 0 0 0 0.0076037283604194908 5 511 49 457
14172 -0.62649220159795604 1.0427208238886669 2.4861718806657698 167 122 17 1.3613799515836977 72 1056 29 916 8 786
3899 -0.49681295980632734 1.142947941541139 2.5223139071848131 129 81 57 0.73222954945425733 53 1255 45 930 99 772 92 743 28 1064
3800 -0.37678139894670298 0.83117202291311687 2.5471184120527304 231 214 124 0.4294681683981641 35 846 53 463 45 439 64 492 81 893 63 844
14073 0.55957462673731051 1.283028192963694 2.3875789057488461 229 187 70 1.6434417988082928 72 858 96 630 79 1418 41 326 24 506 35 614 45 651 97 958 63 590 63 982 9 536 9 1011 66 882 98 1215 40 609 79 1342 20 482 20 1386 82 514 55 1026 16 449 16 889 5 1125 49 824
4674 -0.015452698087578667 1.4757778134873896 2.2633168668563419 211 185 72 0.22693524050210248 64 1463 81 1184 22 1158 31 1256 4 1309 48 1274 26 1125 56 1222 21 971
14947 -0.39308650891040864 1.67435915208373 2.2169208607919639 201 165 57 0.044943107390769094 55 1109 5 1212 49 1123
4685 -0.18362019173504962 1.6217013550474544 2.2044354985045822 218 191 68 0.67514002375738191 64 1051 81 1259 22 1230 56 1042 31 1232 4 1090 48 1058 21 905
14958 -0.88124523534615518 1.4728431436765737 2.5196076799533271 231 180 35 0.0083764561892753966 38 179 5 1339
13822 -0.78791822179608717 1.5239274654000232 2.4417276412703219 236 210 73 0.081437590633255244 92 1277 11 1063
3549 0.89020195636176291 1.0593587584320272 2.4176464007079077 115 78 39 1.039338881604035 40 107 35 865 63 563
3992 0.71614103005633034 0.82987345736059759 2.7058587005333194 110 89 43 0.13296328353638434 35 1539 45 1343 9 1145
14265 0.0096245287188294875 1.4418313843563839 2.3116866928399133 95 64 30 1.7870259319336999 28 1239 69 1446 79 1242 89 1332 29 899 96 218 28 202 69 433 8 389 98 337 82 425 47 1101
4091 0.85460071195233478 1.0709019874780406 2.6680872152007327 85 67 38 1.3481694247047533 35 180 9 75 66 306
4687 -0.22560517869396793 1.4192457063459523 2.362386700797531 92 93 31 1.6459706214654215 64 1530 81 1271 22 1402
14960 -0.59876349382732219 1.334391953322825 2.3802007201989364 233 210 93 1.4493027910421421 55 1012 5 1364 49 1232 50 1026
3993 0.63986512778119353 1.221613709714815 2.3702952664064241 236 215 98 1.0959047490082225 41 749 53 1611 45 1352
14266 0.50289523857227514 1.1286322493867429 2.4769931460360204 101 102 30 1.4566198104112695 99 229 92 212 57 318 29 249 53 351 98 206 92 1206 69 1187 82 155
4092 -0.80135749103646314 1.5262677205437836 2.3373817743495335 189 173 144 1.5217018842706962 24 177 97 184
4688 -0.16438742738757151 1.1469135298272803 2.5224454495934432 227 200 80 0.043464455986261231 64 1007 81 1272
14961 0.23165311751502812 0.50234083283801845 2.5867481582149718 85 64 32 1.9882446425466056 57 1006 5 1367
3994 0.67622681082133429 1.1328753089981514 2.4463712296341913 148 85 25 0.3948334493172983 53 1359 45 1353 64 1331 81 1080 22 1321 31 1341
14267 -0.88769213298750438 1.1970766621730073 2.385035336848349 39 15 11 0.26122951772945285 96 944 29 650 28 1146 69 1045 8 709
4689 -0.016257998620598797 0.72821892159289237 2.609008649013953 213 205 123 0.13691466882287129 64 1540 81 1280 22 1260
14962 -0.12633772110314326 1.4268051207065584 2.3225483646382337 131 136 76 1.4503625791451746 55 472 5 1373 50 772
4788 0.26440590146554216 0.81769244765067917 2.5943428646454323 231 211 126 0.51782695699060377 45 100 63 229
4693 -0.09063942594879186 1.2827503541080274 2.4775038088517665 87 64 32 0.16235178789920512 64 1060 81 1324 31 1249 22 1253
14966 0.097223493211735304 1.3611215122445499 2.3737505306175959 95 97 34 2.2701580459538624 53 1508 45 1151 64 612 81 635 31 792 56 694 4 586 48 881 26 476 21 452 62 286 80 319 69 441 29 527 99 618 92 611 57 663 98 871 17 1150 28 154 72 164 69 147 69 608 5 577 8 509 49 882
5063 -5.2280840945521017e-05 1.4219589819291987 2.3237097496627288 75 43 41 0.97589440931937277 97 724 9 114
15883 -1.3074593317441943 0.84590344729963629 3.1892545217000281 189 168 135 3.4296997569731049 38 2 84 0
10796 -0.049252074933987991 1.4675665154179907 2.327483612018133 49 22 14 0.050986819838902686 70 82 25 96
5064 0.39768721838833565 1.0022776354792171 2.5637057964504546 141 123 62 0.96988813636979587 63 202 9 125 97 424
4099 -0.51756662457631752 2.3804878264659339 2.2252817020793461 231 214 164 1.2306155526542417 35 318 97 220
4794 0.8209514976815675 1.040770472030075 2.3351173260656672 179 174 101 0.45928532097230546 100 1153 63 259
5065 0.35508051500346349 1.1290899537355663 2.4698599888808985 71 55 29 1.595241110643483 97 662 9 270
15338 0.2040167553484149 1.2972843031034582 2.4004582402988497 99 116 71 1.2739319088370922 49 164 47 133 61 128 50 205 84 245
4773 0.21838419389305205 0.70997328694366757 2.6216396050462567 222 202 74 0.43902708072120911 35 161 45 294 63 175
15046 -0.21178017302619376 0.79232063680284803 2.6216432810032284 48 18 7 0.34390175864105438 29 485 89 628 8 765
4697 0.44433562946374039 1.3422506168845292 2.3886586421098963 237 223 136 1.9544668297910222 64 7 81 1353 28 9 69 9 79 8
14970 -0.0027566194867621849 0.54281678573226544 2.6997028458494414 110 61 20 1.8486447436944335 55 37 82 47 5 22 98 25 79 24 49 31 39 30 47 20 61 22
5068 -0.16274989096707165 0.79594306223299183 2.5995217505324222 224 215 138 0.25803089472132767 63 528 9 614
4699 0.48008434012236206 1.2359527445586438 2.3765091112902539 224 214 152 0.85692846076112783 45 1481 64 1279 81 1359 63 1127 9 886 22 1297 31 1304
14972 -0.168485653600319 1.5853846950521673 2.2156236255467361 171 136 34 1.8052711206349938 72 1281 96 1366 29 1317 57 1513 92 1221 40 1716 96 1364 17 1157 98 1211 79 1300 72 1289 82 1310 5 807 17 1163 89 886 96 622 49 1063 39 641 47 663 70 609 61 708 84 704
5168 -0.68278172197078646 0.96693356975360245 2.472001971581324 211 127 53 0.26238974672100557 81 997 22 967 31 947 56 944 4 957
15342 -0.58496758420471806 1.479871490368255 2.3821075153178102 177 66 11 0.24707226733335566 39 159 47 157 61 217
5069 -0.24472953363159966 1.2767324564901035 2.4816592838139533 31 27 8 1.012195592709106 97 909 9 875
4799 -0.11606927783162267 1.0238290986272507 2.5130424300670469 234 214 123 0.15097552968420561 97 341 63 321 9 645
14378 0.52654036399945869 1.2348428351784331 2.3627089908485637 0 0 0 3.2753946285599804 18 701 92 343
4105 -0.19582358637482031 1.172943083704048 2.5107458121253812 178 92 25 0.84005354333647886 45 389 97 282 63 316 9 638 66 1137
5617 -0.30412355841069416 0.84236776922670054 2.6452855966921107 227 212 125 1.8545737240120479 31 815 56 1193 48 1040 26 1005
15890 -0.72824213692133988 1.1217640304834078 2.4515411363085335 103 108 40 2.6350196637954117 49 295 50 429 5 297 55 446 49 429
4800 -0.25801333307496538 1.5704651747072513 2.2455265227805454 86 50 44 0.25824800866201675 97 601 63 322 9 201
14974 -0.083578743569262565 1.7261304688865524 2.2903365105240483 233 197 66 2.5147734275318157 40 1261 18 1173 30 952 35 1276 24 717 97 1072 99 1577 92 1575 57 1319 17 1334 11 1412 41 653 30 238 100 507 24 715 53 836 35 535 38 652 65 894 41 604 40 1216 30 626 100 467 24 711 45 1111 63 873 9 995 66 868 66 878 99 738 92 1576 92 1601 57 1346 98 1432 11 934 11 965 20 607 20 1543 82 1294 16 821 16 824
4701 0.74228973679783994 1.0835412811520719 2.4887582780570692 121 67 25 0.48341139108480097 81 1376 22 1328 31 1351 56 1336 48 905 4 1271 26 851 62 811 33 771 21 1191
5071 0.50472152681482951 1.3431485068360789 2.404169065934592 231 184 61 1.5711459012104501 65 731 41 329 40 491 18 934 100 506 24 523 53 481 35 625 35 598 45 648 45 654 97 466 97 968 64 798 81 1334 63 984 99 490 92 484 92 1501 41 557 57 880 63 983 28 934 96 635 69 896 17 646 98 694 11 537 79 1400 20 465 82 595
15344 -0.96676011476297175 1.1733289968051555 2.4804786288096783 229 215 125 0.084530608038641722 39 162 47 162 61 102
3565 -0.41260262374338696 1.0021429444384564 2.5051871872185649 116 81 59 1.2763271180408866 53 691 35 977 45 714 81 444 22 454 92 1015 99 1028 57 1199 17 922 98 716
5072 0.91442219467833774 1.1948325010334024 2.7232213824930334 191 157 61 2.1061626939179421 65 937 41 276 18 1432 30 1243 100 588 30 755 100 746 97 64 63 117 9 117 24 806 66 570 40 1574 24 1339 97 1274 27 149 80 205 11 441 11 946 57 1466
3957 0.22742609807801961 0.98016227927529809 2.6402482544194976 122 81 17 0.035188079201705642 53 1006 45 1154 99 1422
14230 -0.21010787257564834 1.0696519595735627 2.4677743163363961 185 121 67 2.2319450866329626 28 1116 96 822 69 1491 89 399 72 430 96 416 79 338 69 707 79 565 29 629 28 868 96 788 29 668 5 668 8 732 28 577
4802 -0.78333583706379606 1.1866895716853996 2.4007712651626005 211 138 94 0.44784283157433741 97 324 63 358 9 330 27 295 78 343 62 305 33 338 67 345 80 345
15346 -0.2421693462679779 1.0824006262147718 2.4997976297778539 167 70 29 0.39304249294245075 39 186 47 187 61 197
5073 -0.072935583502907811 1.4167855117937085 2.3449700412924441 57 56 17 0.85331329742875706 53 161 35 375 45 177 63 765 97 579 9 305
13841 0.3530425197213774 1.3149033582922371 2.1158171144002629 175 115 32 2.0573105703833932 100 72 11 1293
3568 0.17928481973171193 1.3972948933492639 2.0639546405357176 101 105 38 1.082673042418262 35 997 11 321
4784 -0.86281563538584338 0.06360010201749132 3.4170911338821202 0 0 0 0.070681917654865506 35 386 63 214
15057 -0.13326633722277439 1.349619436250439 2.4809280096160813 29 27 20 0.15836270682651504 28 1118 8 1101
3570 0.30343964980454191 0.49454845461485453 2.7566578827057757 221 198 77 0.83354601308965959 24 899 35 1012 66 665 99 1186 92 1016 20 1005
14384 -0.91204434607206708 1.5033860083933779 2.474955912032426 233 188 47 2.1291494100468449 40 1039 20 1282 16 434
4111 0.89671262995813161 1.1597844405651467 2.7828011307062197 133 61 13 0.86994405984530587 97 383 99 1505
15350 -0.090422053800073246 0.99660708916485963 2.5087452641258192 153 78 39 0.61428467841132495 39 131 47 213 61 208
5077 0.030357960745171143 0.84559192432814745 2.7341372215387141 231 189 134 0.21940417110129723 64 1 22 5
13844 0.17147725858472004 1.0071536688873042 2.5764412642701067 191 95 18 1.2542493519159719 17 1396 96 1305 20 720
3571 0.09579270794932572 0.98916881471705465 2.5723086770325394 227 181 56 0.33975538612136813 24 1504 35 1013 99 1363 92 1453 28 1300 29 1193 20 1110
14385 0.7675334341073502 1.1715902504358069 2.4271482868335577 0 0 0 1.7708280055613674 35 1463 41 1305 24 442
4112 0.59242119559657413 1.4161869866575298 2.6674990994466383 0 0 0 0.43633234691453965 45 252 53 321
5078 -1.3353772239195651 1.1860218237592894 2.8895445961031547 107 98 85 2.005682710195118 81 13 31 9 56 7 4 9 59 16 73 15 21 11 48 13 58 15 13 15
4786 -0.54063228987378831 1.273663134674843 2.4016250880910723 229 203 106 0.20550187262904021 35 260 63 219
15059 -0.21319763649060533 1.181001503305066 2.493323206216389 163 106 28 1.7919667716628247 29 665 82 380 96 828 8 1167
4885 -0.68693604845721934 1.1641493718589653 2.4208292796439412 241 235 177 1.2946278429016675 53 176 45 193 81 301 63 352 24 150 97 137 22 365 99 179 16 59 41 74 8 191 29 25
4234 0.79320698944030366 1.0929361779857092 2.3117604751662366 203 159 45 1.4960258293528008 30 684 97 149 40 357 100 1110 24 1161
14507 0.25454474916205644 1.0238943875321009 2.6290355626240589 157 119 55 1.9619127873276483 29 615 72 290 82 713 5 1018 84 623
5079 -0.66230543057022329 0.57447183466122698 3.2202170585766856 85 85 81 1.0567847990765507 81 9 22 14 31 11 56 10 4 12 48 11 26 10 21 12 59 18 73 14 58 13 68 13 32 13 3 7
15352 -0.69852974035378412 1.3254297194257278 2.4548913475929472 140 77 40 0.53417657897318738 39 218 47 233 61 244
4787 -0.21156033754044137 1.5438802825263866 2.2537469267034704 92 49 33 0.65656093464601073 97 598 63 228 9 138
15060 0.13511158993116698 1.4254277619397855 2.2871584408569161 219 187 60 0.29883239547119428 69 1419 79 1251 99 1224 8 1199 92 1185 49 1179 47 1093 39 1049 61 940
4886 -0.46197014603908854 0.9070484074121401 2.5688663764106692 168 159 101 1.1539779297511608 53 673 35 991 45 969 64 1140 81 974 63 392 24 693 97 655 35 426 9 369 22 1311 31 1087 27 486 62 316 99 1082 92 1053 57 1226 72 400 28 288 28 643 96 309 96 875 69 937 17 970 98 943 11 1269 55 901 79 730 29 750 82 829 5 231 5 770 8 758 49 224 49 838 39 713 47 446
5179 -0.32596306477309334 1.2880240833458727 2.1756881666288908 32 27 31 0.35820168292236287 64 1196 22 1057
15353 0.14724637322858219 0.80944056018079824 2.6096738324090589 64 19 12 0.62618253595082807 39 262 47 265 61 119 25 252
5080 -0.34494834641572802 1.8024028980519029 2.2642780896823309 223 187 76 1.6470133551296775 81 10 22 18 31 16 56 14 48 18 4 16 26 17 21 16 62 12 27 14 59 30
5284 -0.97944021933593362 1.2665914121839925 2.5364664880720036 69 24 28 0.21257380731330056 22 1007 31 324
15458 -0.87344214227492523 1.1388838526312139 2.4517699228799552 130 132 76 0.48233087024605775 39 1270 47 1314 50 1100
5185 0.12118320137524954 0.51924023252596418 2.6936199343286789 130 66 22 0.23338062950126159 64 1091 22 1141 31 1272 56 1351 48 795 4 695 26 614 21 672
10371 0.085622900215033979 0.79314460490451022 2.5847893821587711 180 113 83 0.87533964650889473 51 169 34 175 44 185
98 -0.1869853498124002 0.9646542771771166 2.5665650355786034 102 31 16 0.96227303150372789 89 379 55 255 96 1060 69 224 5 224 49 223 47 458 50 241 84 192
4214 0.63323316313941058 1.2006249159842026 2.3150259423655744 82 70 27 2.4014703494381311 97 721 35 653 24 293 40 109 41 302 30 900 63 533 20 1070 40 1699 66 152 16 1489
14388 -0.37200256166629792 1.4647203102753561 2.2921575906749272 113 77 37 1.1098644547058441 41 790 16 480
4115 0.68046549022955771 1.0944172900580109 2.4985576455262488 119 73 27 0.66579623224260243 35 621 45 292 97 439 63 250
15900 0.57333906429017067 1.2209870575032966 2.3941225626387217 169 117 41 0.51817746792054098 100 274 30 833 24 422 35 507 45 456 64 566 81 580 9 447 66 906 99 318 41 337 40 509 92 293 89 567 55 341 72 524 96 492 17 526 98 549 11 500 79 546 29 532 20 321 82 457 16 311 5 517 8 492 49 332 39 698 47 822 61 608 50 571 84 464 94 702 70 486 25 561
5726 -0.51231964693661769 1.0741794816026065 2.5438677096512032 128 60 41 1.998629929876043 31 1100 56 842 4 832
639 0.71513271775945009 1.1188002872233214 2.4583343066608148 174 90 28 0.61559332730381211 89 710 72 620 28 688 96 1444 40 1151 69 1160 17 594 98 611 11 1047 79 994 29 857 20 1323 82 1155 16 1153 5 1028 49 1015 39 472 47 799
5181 -0.42378638229069682 0.78498572398975164 2.5607428017177689 131 74 32 0.35830487418717338 64 1545 22 1098 31 1124 56 1050 26 991
15355 0.19537941087107774 0.56610314133616391 2.7138378422414178 40 25 14 0.64399967272230418 39 146 47 284 61 282
5082 0.11050754462887702 0.53902095525729909 2.9738255092263484 81 54 19 1.174181962595229 81 50 22 28 56 15
3967 -0.095170860853532255 1.3909078684391707 2.3628902331847406 155 160 106 0.82423863645818385 53 1063 45 1221 81 1323 64 1526 63 952 31 1266
14240 -0.90774037378575878 1.2155698288781551 2.3942874233976221 147 96 73 1.5426237569039591 69 337 17 723 98 704 29 570 89 359 55 485 72 557 96 947 79 314 20 1016 11 1252 16 1075 5 514 8 807 49 478 50 450
4238 0.57602871811235667 1.2291214966503958 2.2971801277086787 188 164 75 1.8943575643288131 30 911 24 230 35 1189 97 1048 41 812 18 908 53 1366 35 658
14511 -0.11692262386839096 1.7555871978175341 2.3033838555432498 232 185 53 0.17193751254540945 55 1170 57 481 82 798
15356 -0.18395814312539099 1.0712582703014777 2.4932436434849858 230 214 115 0.32238604282336086 39 417 47 305 61 264
5083 -0.11198817818086348 1.2545389808564582 2.4659031432001446 152 110 44 0.7125792546481885 64 44 22 32 56 37
4791 -0.29829508981061664 1.6999367751319421 2.1786611874298911 216 184 78 0.53513370005712879 97 207 63 240
15064 -0.28382859392623527 1.5780532387927648 2.2695371742663975 93 49 36 1.6816716026204883 28 1231 8 1335
3676 -0.014690488610622112 1.7151802795295445 2.347923109081504 233 199 67 2.0424322922709064 40 573 18 452 30 484 100 854 24 1231 53 1597 35 1106 41 485 65 484 40 475 18 260 30 262 100 556 24 1080 40 1276 45 1162 53 860 97 1099 97 1135 63 640 63 1067 9 988 66 528 66 949 99 695 55 1116 92 955 92 1565 69 854 28 1419 11 436 20 405 20 1588 82 810 16 429 16 691
13949 -0.83063812036421947 1.4178825855624653 2.3644080016217854 160 89 58 1.6556505599149178 69 1265 89 202 79 271
13850 -0.20797824917403968 1.7790580349329945 2.2439819187301162 231 180 43 0.16621328250154149 18 1161 40 1235 11 1409 16 1309
3577 -0.00026872496513976338 1.0676137209298779 2.5248383286692024 230 203 72 1.7743338238062554 53 992 63 962 97 952 9 814 92 1491 57 1047 40 1196 98 1050 11 1275 20 1144 16 1135
10374 -0.18547579673053621 0.41306168368836804 3.3530837749227391 60 41 60 1.6429937524446487 34 183 44 140 86 357
15461 -0.39899452829017812 1.7948794253224685 2.2054440656993379 226 190 79 0.2764772562674499 89 239 39 353 47 371 42 371 54 350 94 240 61 227 70 155
5188 0.096823181029125752 1.0429699005713651 2.6464116938097977 228 197 80 1.1120434886112605 81 1165 22 1186 31 1199
15903 -0.29344197302444486 1.7310408619844759 2.1911029917654994 231 202 82 0.26838558612940916 42 1146 94 964 55 573 72 627 38 704 65 572 41 555 28 1385 96 1414 69 818 17 868 98 903 11 600 79 810 29 1217 20 540 82 796 16 770 5 826 49 659 39 838 47 877 61 658 50 603 84 770
5729 -0.36436722805730798 0.30397117168496973 3.4818259220830186 27 7 5 0.10786284866871931 31 267 4 878
15357 0.10145058658057626 1.2660606312354781 2.4284432534605873 86 25 16 1.6076520169940132 70 646 47 308 61 412
5084 -0.62016416767785509 0.4902347060615232 3.2351977790764912 85 84 80 1.6900795164147764 64 31 81 31 22 36 31 27 56 31 4 27 33 90 80 135 96 48
4792 -0.10239354643362399 1.5395520397988591 2.1324044814514131 200 167 54 1.9250854268754909 100 1031 99 674 53 656
15065 -0.14469271281005744 1.49442890698203 2.2965347971517809 135 135 72 1.2310605309696896 79 566 8 1344 84 949
14392 -0.91450495477040106 1.5258557061681155 2.565094897710603 137 115 104 1.5776918730765814 89 1366 20 1351 82 1336
4119 0.4865802604631746 0.7360596416056302 2.7115397340171934 105 47 11 0.83083899043978648 35 1273 97 490 64 1320 63 546 66 546
15904 -0.46982897914795707 0.81530967408025412 2.5639464720104757 111 65 30 2.0816450211663602 54 1055 94 839 92 827 17 947 98 981 11 1003 55 779 72 489 89 918 72 968 28 624 96 983 72 959 69 765 79 659 29 1162 20 1004 16 1080 5 716 8 448 49 638 39 1221 61 892 47 1184
5730 0.14049887278590698 0.54102064672011441 2.6795278668485092 215 192 79 0.14800350419381222 56 744 4 881 48 765 26 803 21 857
14513 0.02008907623929396 0.87823450391037883 2.6196082061563284 82 35 29 0.15924529374689597 55 792 57 1306 82 856
