# 3D point list with one line of data per point:
#   POINT3D_ID, X, Y, Z, R, G, B, ERROR, TRACK[] as (IMAGE_ID, POINT2D_IDX)
# Number of points: 376, mean track length: 3.3283319440585348
20166 -2.2812573466002224 -0.15390992570674333 4.8822517357271087 2 1 0 1.9006637728583311 7 1109 9 263
9893 -8.5584884840913009 -5.4998482438003728 9.6997130366214233 142 140 99 1.6753972701887154 26 1088 34 896 33 820
4905 -1.7449569595780168 -3.9782452810718212 13.235012499057706 158 159 153 0.95729794058149242 30 96 27 108
20153 -2.1548025423895258 1.2502980243900241 5.2386073287729626 27 29 28 2.0596129514838677 32 1877 9 1707 4 1870 35 4071 16 1632 31 3266
9880 -9.460217656405467 -4.2410122244185162 9.0747245408948434 194 185 181 1.0413580905743887 26 663 34 823 28 745
4892 -2.1899188686673612 2.001754817178901 4.1728196193114435 0 0 0 0.13936018917277854 19 4398 20 1747
15165 -1.6812075970668441 -0.3534347068876888 4.9415717217261834 49 53 47 0.60088736780726615 34 2519 15 1831
20243 -8.3867817325478171 0.72149395363179536 7.9714123309892804 151 149 162 0.4303315333424389 9 112 11 121 10 136
9970 -1.3153953228605813 0.65968222728852011 5.8869828445743826 41 22 24 3.3710885461098026 27 1006 34 1410
4880 -2.0420042797889044 -0.42412942387374342 4.1651937483541159 152 153 142 2.0685853864128481 24 2343 31 4813
4975 -7.7242381863517791 -5.2273437076752582 10.043800939778588 187 227 252 1.729925101546363 27 469 26 372 30 466 33 476
4875 -1.9389887773049783 1.9018384499662431 3.9952184676908034 198 198 187 2.1206182904766266 20 1750 31 4581
20121 -1.6181620294386905 -0.10239374755653526 5.0273316614565688 33 33 33 1.3184639297127603 7 1724 9 2042
4860 -1.1463980571525367 0.28068533818817193 5.2443265754732504 39 40 44 1.7062766143949863 24 3431 31 4134 26 1897
4856 -1.5395534440543972 1.709949647910435 6.6223669045556015 118 107 98 1.4696910130905376 19 1421 31 4029
20114 -2.1049742589482725 -1.0610298160608813 5.0043534980375002 80 69 75 1.1039605151267451 7 2039 9 2011
9841 -3.5086511104968618 -2.6965359597854235 12.470529296916544 215 215 217 0.50791776466960092 26 695 34 635
4853 -2.4249033040542058 -0.38104278796351659 4.7476223933870001 62 62 62 0.81564018749934042 22 3069 31 3864
15126 -1.1756670997484666 -0.16381804790488355 5.6442120824589841 122 123 118 0.43369951869853973 17 1428 15 1649
20213 -2.8898694935103499 1.2899870642010185 5.1653587386990116 0 0 0 0.55550911451800067 5 823 6 403
4952 -6.8850366336853304 -5.2027239856302945 9.9856700838271113 89 78 66 1.5634467011589233 30 364 27 401 32 225 33 264
15025 -1.5796362563562523 1.4770427824924035 5.4335487105572993 205 214 211 0.82849327367742498 20 3736 8 1077
4752 -2.1027741528096966 1.1994047731051936 5.2336274529289506 244 254 254 2.1732508922518545 17 2742 31 4992 27 5334
4851 -1.7654005516507401 -0.64818040423993473 5.2118179122379402 117 117 116 0.96944890154968788 31 3857 34 2911
20200 -1.8491364349673509 0.25426810682925949 5.0576771049532425 68 70 65 1.2582742400713716 3 1756 9 1572
9927 -0.61873519933933574 -0.20369936155452056 3.9552836733376528 89 83 75 0.87942898521312229 24 1195 34 1136
4939 -2.2799888479389203 1.2379529276358066 5.1945863309270051 198 224 220 0.62450884487917324 19 4456 27 272
20193 -1.9654031960844209 -0.6628463668659712 4.8507653811423079 0 0 0 0.23725531422714113 3 845 27 2320
4932 -3.8335403675289657 -4.6608625087297453 12.580416568530879 173 167 167 1.1115851107425763 30 198 27 241
15104 -2.4669577690805031 1.5878536152955145 5.3395799136177962 215 220 222 0.82136578364768509 6 2124 15 1540
20190 -1.4933995452021627 1.4242924050077843 5.4508814012555158 73 73 66 3.0923432914264111 14 2345 9 1157
20186 -2.8176798508426186 1.4445161536093929 5.1209248261513274 0 0 0 0.78633268383677501 6 565 7 921
9913 -2.0637137453973109 -0.18101096118254334 4.8794392924553618 40 45 41 1.4007713163935442 17 1809 34 1045 12 216
4821 -1.1995519784081328 -0.39438353159950129 5.2357929602761422 89 90 89 0.12174377863676455 35 3618 31 2841
15094 -2.1520672581495366 1.5311084075085863 5.3102953707675198 217 217 219 0.63811154629292421 20 3032 15 1498 16 1098
20181 -1.9897624990059504 -0.22230912385244767 4.8987716466990161 51 53 50 2.294518364277164 15 727 9 769
20180 -1.2246277018267631 -0.38211073927417666 5.3461298094064915 39 40 42 0.31261158690518465 11 965 9 733
4817 -1.9934582172117132 -0.37622285113962345 4.8911558442176801 178 173 167 1.3531104877494813 19 1493 14 2686
4816 -2.9064634843556933 1.1670706171516645 5.1488442373810575 106 82 80 0.1766911452202776 30 5036 31 2549
4815 -2.3632417293667567 1.7554708688886111 6.4076053725631903 101 102 88 1.4934652291966781 18 2117 31 2538
4809 -2.2054674438302562 -0.61415097125123808 8.3117436640238012 38 42 43 1.1028550185915391 30 5124 31 2199
4806 -0.043654294534937979 -0.85737670593796189 14.457602226653247 28 34 32 0.033097803042941298 35 3116 31 2136
4803 -2.8656532306253468 1.4111370416472757 5.1639532114086606 49 48 46 1.6179042261879641 30 5225 31 2028
4802 -0.41983735893080437 0.69223405324626008 7.8329905512067484 45 51 51 0.73036382250066767 22 121 31 2025
20158 -2.1119658058702626 1.2191899791466769 5.246559823615744 47 48 47 2.1688661818681827 21 4423 11 1835 9 653 22 3574 34 2788 15 2332 16 2719
20155 -1.9735720300737924 1.2240160214155749 5.2834492857109776 31 37 36 2.2698294589521701 20 3420 25 2259 4 1916 31 3546 13 1122 12 2196 20 3432 21 4420 34 3223
9882 -1.8667287674163631 0.061231276801577458 5.0014200789196259 76 85 80 0.46783140180744809 23 4796 34 828
4780 -2.3565922486966415 -0.18960677167228665 5.3103090763707952 35 39 38 0.49947410392538105 35 114 31 55
4778 -3.7607470114621639 -3.0752174888860644 12.325051870150784 168 157 156 1.108656405587398 24 2184 35 2293 31 1736 19 1218 20 1185 17 1463
4776 -3.0925580079662627 -2.3299076941703052 12.785390785148472 90 87 90 1.6226497144346745 17 807 20 843 24 1119 35 992 31 3333
20016 -2.0860150750423849 0.29524963814025534 5.0038802110971377 74 76 71 1.7488569158281571 5 2347 17 2218 9 1510
9743 -8.9501555696852719 -5.3591684333954523 8.8591474613988588 148 107 62 1.084528230979914 26 327 34 272 28 346 32 215
20001 -1.9230967602630833 1.187787631807347 5.2747609313978057 0 0 0 0.56655658221601923 4 3121 20 3836
9728 -2.104232717307096 -0.48792338127411988 5.1126335041227353 251 252 246 0.99129347643356558 26 187 34 236 28 158
4736 -2.4373268346681867 2.2148502909087662 3.7713605624709019 137 103 96 2.1501578487827553 22 3666 31 4893
4726 -2.2436057029857044 -5.5789027421845629 9.9122707462482129 144 145 140 0.1799717212787148 22 2377 23 4367
4721 1.4404790295112295 -6.4312761334698125 11.883779689445625 172 159 152 0.93745551925174542 22 3654 31 4805
19962 -1.6730669195778733 1.4400051982778332 5.4217462996726269 101 102 96 1.5554541716741885 19 2026 9 1174
9689 -9.9336433412840446 -4.636484407738644 8.8830745247119527 171 146 141 0.44914333790820821 26 121 34 109 28 118 32 129
4701 -1.542454310630206 1.3093255670182387 3.2061334710853013 82 90 92 1.6496670321005906 30 4191 31 4703
19960 -2.3238143741294848 1.489395428113351 5.263216992290503 100 101 97 0.57938030376239236 16 843 9 1161
9687 -4.3128207914668417 -2.0814528781178949 12.855212038574134 68 67 73 2.397685758040391 26 75 34 97 28 137
14873 -1.3803223105220246 -0.11771773231580006 5.0791056507735979 5 6 8 0.34636976469676123 27 59 15 32
4600 -2.1397780310950361 1.7424084342528421 6.4636828222437082 109 101 87 1.0234395694709513 18 1180 31 4025
4699 -1.9238375258842053 1.1867230201465067 5.2858411293010183 16 24 26 2.2236518386385451 18 3413 31 4692 25 3394 29 1599 33 2506 6 1949 14 3763 30 2737 28 2141 7 1178 11 2249 9 1396
19959 -1.77700916497876 1.4419967955870976 5.3876767086922754 104 105 99 2.4099367019365014 11 1453 16 1106 9 1145 14 3897
4698 -4.1146947500788817 -9.0220435466722204 37.854126726244722 160 167 163 3.1410565008692837 35 3731 31 4685
4695 -2.1730964911116235 0.27876474710157928 4.9751327809984529 47 49 53 2.4494232761258981 22 2597 31 4669 21 4373 35 4175 2 3963 5 3970 14 5302 1 4397
4691 -3.4281724114471723 -3.1703071158012666 12.218767509591114 132 141 138 0.45503696683718403 19 3985 31 4649
14962 -1.7214569995599565 -0.40690215490824261 4.9151716626422237 142 130 120 1.8521292505439877 18 2371 15 650 27 2933
20047 -3.0401935005198575 1.7993435160240825 6.2546185125088334 0 0 0 1.5659299170851493 26 2877 31 3310
9774 -8.5724437692508886 -4.4709382127550503 9.1559390781931143 179 137 95 0.55600944868439228 26 266 34 364 28 356 32 322
14960 -2.0349261415201245 -0.16413237753728696 4.8845813047237154 15 17 17 1.1205802723275353 18 1569 15 635
19945 -2.175311929270193 0.36353700594173449 5.0065970735982601 0 0 0 0.52949367776819689 7 925 11 1557
9672 0.027980924220920616 0.21657579367670238 5.5432413159134262 24 10 37 1.6953571341819749 23 12 34 48
4684 -2.7729827164832428 2.1214269581341934 4.3189562867044895 133 118 103 1.0356141733350592 19 1454 31 4606
14957 -1.7852497749464651 -0.17062259607973901 4.9593529262986902 36 42 40 2.5075657564865734 21 3515 15 628 23 2749 14 2216
4783 -2.8551094274981916 -3.2985823629034714 13.355871494898835 196 194 197 1.1585612324919117 31 170 23 231
19937 -1.9969507615110162 0.42753803769841714 5.0627936069728676 0 0 0 0.68494703727019801 1 3158 32 2960
9664 -2.711347564101708 1.3286558387110439 5.2264247415066709 2 4 3 0.11654137120544875 24 4 34 6
4673 -2.6477375688038385 1.7696306142327491 6.3786367650947611 93 84 70 2.6397718680079851 24 1759 31 4528
4638 -1.1546174878146003 0.59476747301856325 5.3196256811019582 61 63 62 1.1524740569645573 30 2024 31 4265 27 2445 18 2022 25 1735 23 4624 14 2170
14911 -1.8567744522899534 0.30583690280934772 5.0725806309026389 46 52 50 3.5514823839319885 29 270 15 297
19897 -2.2119229224858437 0.35113887961342893 4.9771920111042158 0 0 0 0.071380033978125618 3 2352 11 1001
9624 -1.8158260695278132 -0.41823780519406351 4.8842601656203115 20 26 23 1.182431011676927 19 2845 26 1533
4636 -2.866754735124911 0.67075177807530895 4.9199261924319195 44 45 39 2.4286670151811105 22 2130 25 2577
4734 -1.8485041896416412 -0.40425455215728973 5.099372695288185 117 119 120 1.6663607721309313 30 4007 31 4882
4633 -2.8624135751964723 0.94947086264715663 5.0412178874655984 47 48 43 1.5468241024020672 22 1234 31 4236
19891 -1.7021746844956382 -0.38356082454479518 4.9206210674953992 46 46 44 1.196062438414029 11 781 19 1516 9 762
9618 -1.1491774826192633 0.31260349943297855 5.2619210586490714 46 49 50 2.1132874675754714 5 4704 26 1357
4630 -3.623245281228475 1.8925225033053614 2.2579602233021001 73 74 86 1.969442787125335 22 2776 31 4197
14903 -1.8476373069828518 -0.51364826088838722 5.1325511566664312 11 10 8 0.38879017242666225 17 620 15 237
4728 -2.1895277195987175 -1.2671005540594726 4.3490805474560839 174 169 165 0.6088318427522309 20 2902 31 4840
19886 -1.6732142485803168 0.59220370869620986 5.1751592107934989 0 0 0 0.24501928974824183 7 426 12 1338
4625 -0.80517986948763354 0.38031448311028682 4.2045133991172818 133 126 129 1.9458128249969524 20 3372 31 4182
4618 -2.0788999376738833 0.21278466721084702 4.9849204446443753 38 38 36 0.048291979705241884 22 3188 14 5264
14791 -2.0244943805300339 -0.96995000299572176 4.6792764687206221 28 27 25 1.7292782499805117 20 1306 1 1490
4518 -2.9013502977317054 1.0760073641950074 5.0912778020407092 56 42 39 1.3363216847789772 19 4034 31 3303 29 1060
4617 -1.8924062730874003 0.2504387969085683 5.0437370389462419 73 80 82 1.7620817579248591 35 3489 31 4113 5 2285 3 3064 32 1535 2 3949 15 1607 8 2095 9 1531
4614 -2.1384047078107762 0.31613241421911514 4.9931282191110951 199 203 204 1.528765912278347 24 3883 31 4108 23 4754 3 3076 26 2098 15 2146
14887 -2.0176427002860238 0.25321571861683972 5.0690733583399874 0 0 0 1.0553384120004949 25 163 29 154
4711 -2.8744421273974008 -2.9103694656014878 13.920272444010266 132 132 131 1.5700173956057508 35 4040 31 4764 21 3730
4709 -2.1800859127041421 0.52660576104782486 5.0336490000765801 221 226 224 1.0255013854649968 35 2762 31 4755 29 1734 2 2274 1 2293
4705 -3.1082137538487076 -3.2465731829083389 12.466537594452204 145 145 143 0.46710269166914414 19 4341 31 4722
19860 -2.1328207837019155 -0.49823446964284007 4.8822797146907329 24 21 15 3.3712139380571946 8 2695 9 618
9587 -2.4165743652527372 0.00064318061021564812 4.8316883256840244 67 77 76 2.8466185252265577 23 1073 26 237
14773 -2.3692068279989797 -0.47676128426041298 5.3010676818017437 3 1 2 1.9566807895941938 2 1015 1 804
4500 1.2973480095768328 -7.2557663990017431 10.756365927414743 183 173 84 1.9451555053024074 22 1888 23 3036
4599 -1.9024800298583278 1.3483494354975352 8.6460957158618612 109 103 90 0.96743875318098604 35 1641 31 4020
19848 -2.1289798027979447 0.6067660903938441 5.069451929364015 68 70 65 1.8853095928873778 4 1240 34 1339 9 536
9575 -3.8787794713137389 -1.6731841346478276 12.833898094735002 35 36 48 1.7036549424467813 26 724 19 343 24 1019 20 564 35 694 31 1131 5 620 34 1001 22 636
14761 -2.0784326942045546 -0.3127714006598174 5.0080172960376306 190 187 174 0.91477753728545586 2 449 1 468
14856 -2.2839858091420702 0.83321196752042026 6.2429662568282778 25 31 29 0.60534827558104021 3 2312 1 4794
4583 1.1505746496572631 -4.9477584666790007 13.107902843779852 255 150 235 2.7145022198804858 22 2228 31 3877
19931 -2.2800626902852366 1.2004390359164743 5.1936106235731136 0 0 0 1.3724552703801161 7 954 32 781
9658 -2.8380261371073998 1.3862468580370633 5.0922995638548594 48 49 50 1.6444633496141285 22 1965 31 2606 18 1521 20 1838 29 883 21 2187 23 2305 25 1224
14844 -2.791382400833486 -0.22261090674915562 4.686868510487896 42 46 45 0.39933429277652144 24 1197 1 4162
19930 -2.1368093662938707 0.54183865212744542 5.0884536618025145 0 0 0 1.2728130219581004 7 888 8 2102
9657 -2.2582935214152315 0.42078487671902737 5.4429455794763042 0 0 0 0.026635590685202059 22 3671 30 3173
14843 -2.9388118440014903 -0.25741521448250293 4.7271000638073195 60 62 59 0.94206355188294411 2 3971 1 4154
19928 -2.4544181499955231 1.4983888662359828 5.2309018626576709 100 102 97 0.55367944320473605 16 1195 9 1006
9655 -1.6894480057847936 -0.34664721926358072 4.9427186441010793 27 31 30 0.87301014361398321 35 3121 1 2128
14841 -1.9602649148618143 -0.98205492622175783 4.9283674426605142 31 35 31 2.4026349165999221 2 3106 1 4009
4568 -3.1196641864380465 -1.6582312571879234 6.2678353121988541 83 66 55 0.0085627324175248619 19 3362 31 3777
14838 -0.648890881349519 -1.1756719714558379 11.640773013354236 133 123 122 2.552946032992387 5 3001 1 3878
4565 -2.0442660323919566 -0.78883636805414536 4.5320003274584515 104 113 112 2.0490643778078277 19 3452 31 3756
14835 -1.7759534995027253 -0.31465974528678747 4.929990898383263 35 39 38 3.1628800632759657 22 277 1 3814
4562 -2.3956419585999282 -1.2948408628151711 6.9597601662825648 90 97 94 1.2099799165333189 17 2031 31 3652
4641 -2.5227596088462008 -0.036070343065389109 6.8194275047268178 5 6 8 1.0029054730613924 22 2676 31 4277
14815 -1.9033357965885838 -0.35117928474123078 4.8771042517703238 19 21 20 1.3447619322157722 20 1479 1 2769
14813 -1.4476326199412926 -0.29536251197966384 5.2093864493342368 65 67 66 1.5694228686755571 2 2688 1 2636
19898 -2.1050755136761881 -0.96336750846048691 4.8809666354652892 41 36 40 0.27434037251568 7 1650 9 809
14801 -1.746624540871311 -0.42421917757491545 4.899581704866427 0 2 1 0.64493966309007811 4 712 27 2088 1 2167
19887 -1.666136982088676 0.60100531120765732 5.2058186386101282 0 0 0 0.17784923758504445 7 2438 19 3518
9614 -0.98802658513350572 0.37115144671295808 5.0475078171339973 57 61 62 2.1163612239340051 30 3420 26 1258
4626 -2.8943619017790461 0.17492502133966789 4.8822479562933978 55 55 55 1.1606156122357434 19 1592 31 4186
4525 -1.6558914384190095 1.7293672145716297 6.542483313664512 131 121 112 0.32171894679681412 35 2049 31 3329
14798 -1.1886983156639601 -0.34033264202214375 5.0661586952591255 30 32 29 0.91722446271309921 4 730 1 1880
4623 -2.9061024938467526 0.19087856378397894 4.9176387226461999 89 75 71 0.76703915274021095 18 3082 31 4178
14797 -1.8598476697809012 -0.66895953298690514 4.1862407899347209 33 47 43 1.9370969034577967 2 1895 1 1858
4523 -2.4203270537240487 -1.0879068587243246 7.399678605646093 13 13 15 0.036683521356319353 17 471 31 3321
19779 -1.9588514211111479 0.29324266751251704 5.0404902343305142 124 126 123 0.69276047812218278 8 171 11 201 9 179 10 289
9506 -1.5311323565413042 1.8613957602850366 5.5729221743038959 19 6 6 1.3008765345655253 31 4568 26 2412
19772 -1.1924827265515054 -0.10844672996600778 5.1382088556929082 48 54 50 0.09200000100140876 16 309 9 130
19763 -1.8684511822215721 0.26464559809174437 5.0475267960971202 0 0 0 1.0201420038349325 6 115 7 96 11 100
9490 -1.9251743249523654 1.2333083110694483 5.2970696815802647 25 34 33 1.599868121823703 31 3250 26 2287 34 2345 22 1963 28 1945 16 2059 14 5006 9 1164
19758 -2.0618496678095242 -1.0598379968044567 5.0464204358073435 40 36 35 0.44058818117129483 8 79 9 70
19854 -1.3866455260009167 -0.4833998538783269 4.9807881887862209 33 37 38 0.098857080888106214 19 3123 9 584
9581 -1.176836038952783 0.60781577103093332 5.3255628696856752 2 4 3 2.4269411515159138 24 3457 26 19
4593 -3.3451469220073364 -1.3338237417855998 12.923456538909416 19 23 51 1.5343388969478455 35 1438 31 3994 5 2044 3 1536
4490 -2.0259660542362465 0.42213648151861188 5.0526850777592118 220 231 226 0.92165757598279274 30 1077 29 713 28 1139 33 1240
14763 -2.2512532160499799 -1.0062221926119141 4.6466725166247391 0 0 0 1.8295718521400146 4 545 24 1635
4585 -2.3257804258004517 -0.85233404528963519 5.1228282054126888 23 19 18 0.35155565126764465 19 2534 31 3902
4484 -2.3219950397888076 -1.0291320558690804 8.4153718169886087 35 35 37 0.56132217553051722 18 2548 31 2968
14757 0.91222684473979931 -0.71170563389723962 12.505608631811956 90 73 56 0.95281425268665421 5 272 1 258
19843 -2.0295320991613135 -0.78587920545119205 4.7300570748704525 102 102 94 1.2480876451431215 8 1479 11 834 9 500
19738 -1.872812133824364 1.2004890971300304 5.3034989065818277 37 35 40 1.5315103833942774 18 3251 35 4059 31 5017 29 2579 24 1361 22 1141 15 2589 5 829 28 866 11 891 8 784 9 633
4477 -1.195540278212945 0.31011535579465516 4.0719691559567197 120 60 72 0.58720051396094752 18 3103 31 2868
14750 -2.3532651959325182 -1.4021413311826754 11.060808458142191 0 0 0 1.7780736399801262 2 104 5 1078
4473 -1.172561290591873 0.27618596843966459 5.2338594906349636 59 62 63 0.35050596520171806 24 2930 25 2549
14746 -2.2768231585500045 0.60365968146218085 5.038675168779811 27 31 33 0.88913590475575077 2 462 1 355 29 575
19733 -2.157508741997586 -0.36422639674558283 4.9028831501403358 6 2 0 1.4809080823501957 8 385 11 1810
9460 -1.1106714052359798 0.55383401353945838 5.4086938574199523 49 54 57 1.4628623323286227 30 2022 26 2089
19826 -2.1992327677852272 0.28236720652272357 4.9703181108976855 100 102 99 1.5305001840455512 1 1003 10 670
14735 -2.0014625067674183 0.53461529897600901 5.0878342494936044 166 172 170 1.7353453998277388 2 4045 22 3669 18 3233 19 3094 1 4790 15 2700
19721 -1.7905304288144306 0.33185231641321872 5.1031423839225019 63 65 62 0.61666364998073875 8 1180 11 1373
4457 -1.3365638012536796 -0.32995476436173515 5.0376107253955977 82 84 79 0.59029776213451324 23 4001 28 1463
19716 -2.1583634242985945 -0.25585048866751409 4.9948431957552542 0 0 0 0.3347425058279172 7 769 8 653
9443 -1.1348979450196861 1.1841741861796855 5.4961910097047584 1 5 8 0.56914157140263444 22 2477 32 1617
4455 -1.9039655241498892 -0.82883520995378779 4.9305075631012683 69 69 67 0.014435314995651361 30 953 31 2665
14728 -1.934573354959312 0.26809399582269827 5.0106600960475616 168 174 170 0.45853558967751518 2 4565 1 5130
4454 -3.8589361198016445 -4.7412328475703847 12.357069647420214 127 111 108 0.13478008753535184 35 1337 31 2660
19712 -2.2350157117508087 1.4972127035975351 5.3266550191294657 0 0 0 1.2366135952721524 13 1448 16 1095
9439 -2.3078020255566161 1.4774325284705181 5.2624214232496476 9 13 14 2.2106642081967687 27 1174 26 1987 4 615 5 2974 14 5072
4451 -1.9026842479518531 1.2254627210943803 5.3045552000254421 49 59 58 1.8364794894411429 17 1152 24 1650 29 2453 23 3434 33 850 13 732 4 773
19708 -1.8280224374916041 -0.6816877431781968 5.1844104498777206 62 63 58 3.0734441651067108 8 705 11 805
9435 -2.527572697672793 1.4909685127405903 5.2034387737670187 12 15 16 1.6452513908069786 19 2008 26 1975 14 2118
4447 -2.0302562777794497 0.97177212708900507 5.615527128551463 30 36 34 0.77992211928276411 18 2143 31 2592
19705 -1.9493131452907568 -0.64939227093013885 5.0723016347685714 6 5 1 0.27712963313999478 8 1568 11 550
9432 -2.0074229115213078 1.1884671237869651 5.2665948169756343 23 26 24 2.1008671775068142 18 3410 26 1945 14 3236 11 1840 9 1855
4443 -2.4905377370054964 1.7703545055535892 6.4158895766848509 110 98 86 0.9460464688363015 18 2679 31 2541
19703 -1.1627005344826316 -0.30151552179541663 5.1745169169865015 55 57 56 0.74377440107006165 8 545 11 445 9 264
4442 -2.7287829824791503 1.7813608503099749 6.3225581350815174 101 92 77 0.37785475868351326 18 2121 31 2540
19701 -1.3078145826830525 1.5503214075183964 5.6104567447546998 176 178 175 0.2683257818588593 8 1702 9 389
9428 -1.5596928225450291 1.8780949023989895 5.5733306535836293 114 109 101 0.58009070029558485 31 4894 26 1908
4440 -2.0123105904235521 1.9035028818328898 3.9755831269452675 0 0 0 2.1006760526305848 19 1439 35 2076
19696 -2.0379846438545495 -1.1884374534343198 5.0719744853637758 73 69 66 0.29109612872479051 8 1104 11 347
4435 -1.9910181158596227 1.4556300526387851 5.3391124560242922 24 33 32 1.5025190676105324 35 2045 31 2489 23 3323 5 4118 30 5206 2 2353
14708 -1.8915293490080238 -0.38030433112381057 4.8611951637897945 92 95 94 1.4688771399532197 1 4896 2 1621
19695 -2.9037897127845973 0.12044537049881418 4.8068390092280566 87 84 83 0.33018795436410953 7 2491 11 334
9422 -1.0080989916362353 0.96673179656101116 5.4595304763054351 139 140 141 1.8893349774018702 23 4869 26 1884
4433 -2.3562809142103895 1.546944495592159 5.4803211767100741 185 180 175 0.19227187754501046 17 2541 31 2464
4432 -1.1085904397472068 1.413294665438602 5.7164316509005415 251 255 255 1.1249578757876404 22 1431 31 2452
4427 -1.2066824944546137 -0.0095233962388637794 5.2405319136658415 15 21 23 0.65101471947864098 31 2378 28 1684
170 -1.6961719011737668 1.2042168073529032 5.3539817325361829 213 230 225 1.2617333767632635 24 2060 19 2004 18 1528 20 2500 35 2166 30 1333 27 1230 25 1558 17 1166 29 885 23 3424 21 3200 3 1650 26 1459 34 1765 28 1273 32 1240 33 1513 4 1301 6 877 2 2408 15 1172 16 1598 14 2106 12 1945 13 1911 7 1187 8 1062 5 1647 9 1147 11 1443
10443 -1.1085985604576742 1.3169631033333176 5.5341535762925638 35 37 36 1.1282991684737977 29 1682 28 280
2527 -1.4801033735318414 -2.5333938779622254 11.158559632100921 0 0 0 1.3149166827432466 18 76 20 70
12800 -1.6970300536660456 -0.4018938869572749 4.9177066659652588 8 12 21 1.795979329519769 27 1045 6 428
169 -1.7808606966045883 1.194006594381585 5.3266423239368983 221 234 233 1.1171091386366749 24 2058 19 2014 18 1469 20 1811 35 2164 17 1437 30 1274 22 1340 31 2622 27 1258 25 1211 29 892 23 2300 21 3081 3 2308 26 1192 34 1308 28 1258 32 1018 33 1463 2 2651 1 3338 15 1178 16 1187 14 2114 12 1903 13 1460 7 936 9 1154 11 1438
10442 -4.4940890537049984 -1.6231318901479463 12.028006355853261 95 93 94 1.3203521399798093 34 302 28 273
2526 -2.7053951576593662 -3.0571661698634536 12.343913931109094 172 170 171 2.4274448538696216 18 37 30 61
167 -2.2645353230484879 1.252369597098228 5.2123686893091561 201 223 216 1.557046542735135 24 2055 19 2040 18 2156 20 1835 35 2058 30 1278 31 2618 27 1232 25 1214 23 2294 21 2219 26 1158 34 1328 28 1264 4 1277 6 1935 2 3300 1 3379 15 1136 7 1174 11 875 9 1018 32 941 13 1427
2524 -3.4137404128946134 -3.8896323949509068 12.655611843937656 3 3 5 0.71121244249844706 18 31 24 44 17 35
12797 -2.0760213076556857 1.4572949133118067 5.319610027701108 0 0 0 0.96916541044857885 3 478 33 898
5253 -6.2149958609982923 -4.2086622994752778 9.9736440284194963 140 142 128 2.4987224321027304 30 4488 27 2754
166 -1.7778037062040513 1.1735186543432676 5.3218282802647607 208 233 232 1.2740006090009242 24 2054 19 2757 18 1460 20 1846 35 2125 30 1293 31 2563 27 1365 25 1585 23 2349 21 2385 3 2276 26 1186 34 1245 28 1248 32 1037 33 1224 4 1891 6 1945 2 2654 1 2602 15 1139 16 1183 12 1908 13 1464 7 1173 11 1436 9 1411
10439 -8.3502460024020113 -4.4676689966012688 9.9351991170133669 90 82 31 0.41603569937591528 26 276 28 263
2523 -0.63421301284736797 -0.26556887395165302 7.8353517477941725 210 211 206 0.59662359172521251 24 302 17 34
12796 -2.8452694453347696 1.4037783559614121 5.1249746423521083 116 122 118 1.1088690456145409 4 266 6 409
164 -1.7564713486654064 1.1746662614914603 5.3269624905335444 207 227 217 1.1598368838835864 24 2046 19 2052 18 2129 20 1849 35 2126 30 1295 17 956 22 1992 31 3499 27 1720 25 1587 29 852 23 3398 21 3046 5 1649 3 1651 26 1426 34 1642 28 1249 33 1222 6 886 2 2407 4 829 1 2283 15 1179 16 1185 14 2115 8 789 32 1189 7 934
10437 -1.2329161995216815 -0.045604755368522279 5.2684865069296949 22 20 21 1.6726276609915949 34 1506 28 249 32 825
2521 -2.8273378081567024 -3.7252857741918897 13.686667205723818 56 48 44 1.9908538223448076 18 34 17 21 24 28
5250 -1.4218913653394827 0.037415088719205992 5.0920321675173881 14 26 26 1.8762135202395946 30 1036 25 2707
15523 -1.8991166199797007 -0.28228544817831486 4.8912080690844757 0 0 0 0.59070471391716262 30 1796 31 3665
163 -2.2447417077239709 1.2502192721933845 5.2170998595842057 200 216 212 1.5020757201594706 24 2045 19 2770 18 2155 20 1837 35 2101 22 1678 31 3516 27 1595 25 1544 23 3383 21 3065 5 1756 3 1447 26 1469 34 1669 28 1581 6 902 2 2356 1 3381 15 1952 17 2516 14 3753 9 1857 32 1247 32 3425
10436 -10.206908516589317 -3.028725730615883 9.08878497051567 159 166 177 0.92879269097433503 26 259 28 248 32 417
5249 -1.8289219243532095 0.041718038981899158 5.0006562762267972 27 31 34 1.6675115095435242 31 632 27 2725 23 4681
15522 -1.0490083210384713 -0.41802305931916195 5.0913131850797599 109 91 88 0.17615762575993532 16 574 14 3314
2519 -4.9715712913982992 -2.7067626816765396 10.387375313090518 224 180 179 0.14178376165560075 18 21 22 25
5248 -1.129633808914311 0.014736328659526269 5.1817144519721898 18 26 37 2.0151366827010389 19 3768 27 2721 16 2195 29 691
15521 -2.0223803373685487 -0.23245597148923805 5.1777168341883613 90 92 87 1.2124267361559322 15 503 16 558
161 -2.2247543793238092 1.228817119036747 5.217233861681601 26 28 39 1.0919595255831256 24 2040 19 2037 18 1466 20 1833 35 2156 17 1443 30 1592 22 1699 31 2619 27 1255 25 1155 29 1022 23 2343 21 2388 5 1758 3 2456 26 1327 34 1691 28 1256 32 1622 33 1671 4 1259 6 1946 2 2417 1 2389 15 1124 16 1201 14 2171 12 1894 7 1763 8 1631 11 1833 9 1429 13 1927
2518 -3.1616219234564786 1.0367628488157044 5.3726915975211211 230 232 229 1.0821969702236158 18 12 17 13
12791 -1.7832845923461971 0.56663052961782678 5.1548519446095584 77 81 81 1.5787875181929716 3 529 4 438 5 638 6 399 2 887 1 690 15 406 16 414 14 555 12 608 13 455 9 377 32 430
15520 -2.0540145006540347 0.31447897115524737 5.0214611648378309 26 28 23 1.8606483994190839 1 1616 3 2321 14 830 8 484 9 414
160 -2.0892081899044768 1.2289254502564377 5.2537932945124135 33 38 39 1.1669400913249772 24 2039 19 2748 18 2158 20 1842 35 2144 22 2000 31 2625 27 1263 25 1540 29 1378 23 2298 21 3084 5 1791 3 2415 2 2428 1 2402 16 1635 32 3408
2517 -3.0257677218163344 0.17429964040635951 4.807623552817776 235 234 232 2.4617102019155297 17 12 30 212
5246 -2.0879521075337935 -0.0028179274778208324 4.9267209979211435 66 73 73 0.94587715027319552 31 3701 27 2703
159 -2.2905448230107197 1.2167717584875644 5.1970066222143734 207 224 217 1.2973043330069145 24 2038 19 2029 18 1467 20 1310 35 2154 30 1324 22 1496 31 2068 27 1370 25 1142 23 2332 21 2359 5 2515 26 1185 34 1252 28 1066 32 728 4 848 6 838 2 2370 1 3383 15 944 16 812 14 1356 12 1290 8 806 11 910 9 759 3 1442 13 1429
10432 -10.272217740849458 -3.2887345799878585 8.8593205428715578 144 150 157 0.081216085275592542 34 311 28 235
158 -1.8980352433005274 1.2024436696373784 5.2968100590226115 27 24 42 0.8278229195517568 24 2037 19 2049 18 1468 20 1848 35 2171 17 1778 30 1593 22 1693 31 2621 27 1245 25 1161 29 844 23 3391 21 3086 5 2561 3 2293 26 1475 34 1686 28 1241 32 1196 33 1668 4 1924 6 1936 2 2394 1 3337 15 1126 16 1217 14 2122 12 1877 13 1898 7 1772 8 1655 9 1400 11 1901
10431 -1.8485734668923028 -0.30115638823482094 4.9069280764958174 1 1 1 2.15586073622889 18 517 2 1918 28 234
2515 -1.9911454295955704 0.34696716854398235 4.8950285751151466 49 68 66 0.073333457632965074 24 5 5 6
157 -1.9531531315420896 1.2209490348213303 5.286358767590972 63 60 62 1.6300357519401079 24 2036 19 2759 18 1523 20 1850 35 2709 30 1283 22 1407 31 3514 27 1225 25 2263 29 1017 23 3382 21 3074 5 3157 3 2426 26 1470 34 1695 4 2105 6 1921 2 4013 1 3353 15 2592 16 1583 12 1878 8 2178 8 1092 11 2248 9 1848 11 889
10430 -9.8362704001803891 -3.2119262087863198 9.1906483249500717 187 184 183 0.094331903793159852 26 229 28 231
12787 -2.0396891482210351 -1.0456905361724773 4.9708154363326438 68 53 64 0.20121759114540042 4 531 6 364
5243 -2.1300183034853091 0.2660308172099185 4.9834157725062145 222 237 236 1.9311654548971322 22 3620 27 2655 25 1802 19 3939 3 2322 32 2814 2 3935 1 3145
15516 -1.8038885898578614 -0.517405917481224 4.9960481650958908 83 82 80 0.87317925863014001 15 553 16 534
156 -2.1850644142559301 1.2100143803996799 5.2214583287576124 218 241 231 1.3119528097969713 24 2034 19 2033 18 1457 20 1884 35 2148 17 960 30 1093 22 1653 31 3501 27 1248 25 1143 29 679 23 3404 21 3056 5 1699 3 1594 26 1189 34 1654 28 1246 32 1024 6 852 2 2410 15 1140 16 1629 14 2158 12 1905 8 1106 9 784 7 956
10429 -10.015570066468177 -2.5307817767452923 8.7341431244233867 170 176 192 0.13925264303895263 34 209 28 229
2513 -0.70665279468140141 -1.4374828333574723 11.725646818934713 115 68 56 1.9060803868881937 18 7 17 2
5242 -1.1327559987760627 0.050181765068335445 5.1770133422707119 32 41 47 1.237141360548565 22 2584 16 2202
15515 -4.3910608888791218 -1.7622426722936808 12.042366331099807 178 167 163 1.6366278208925262 15 621 19 442 16 522 18 821
155 -2.0894276389322877 1.2101111067924897 5.2480117142479541 51 55 56 1.5636840392903564 24 2033 19 2041 18 2127 20 2722 35 2720 22 1485 31 2567 27 1251 25 1584 23 1774 21 3049 5 2627 3 2418 26 1556 28 2145 2 2432 1 3394 15 1953 16 1207 14 2206 12 1282 9 1011 32 3296
10428 -2.9351687656624912 0.056720345328319398 4.6964122350829784 185 185 183 1.8032944546666472 23 1259 28 228
154 -2.1480374826382929 1.2073516134634994 5.230521052394649 239 251 248 1.5982897605104052 24 2032 19 2038 18 1458 20 1832 35 2145 17 686 30 1092 22 1665 31 2561 27 1249 25 1144 29 537 21 3055 5 1656 3 1597 26 1438 34 1763 28 1064 32 1008 33 861 4 843 6 887 2 2427 1 2398 15 1137 16 2043 14 3233 7 958 8 812 11 881 13 1495
5240 -1.1208265521415102 0.091104811927496115 5.2006873727642375 40 54 66 1.9711744726449916 18 3080 27 2637
15513 -2.0684958369616493 -0.39341493823320661 5.179808198806084 116 90 77 0.74858297592396517 15 788 16 516
153 -1.8263359974906441 1.2161583768237758 5.3199470184411135 243 255 252 1.1128835017273853 24 2031 19 2798 18 2148 20 1814 35 2175 17 1432 30 1335 22 1687 31 2633 27 1228 25 1555 29 887 23 3428 21 3207 3 2297 26 1461 34 1665 28 1271 32 1010 33 1518 4 1250 2 2396 15 1176 16 2076 14 3290 13 1459 12 1895 8 1610 11 1437 9 1414
10426 -9.3730042811665761 -3.2417028636040284 9.3576852336526315 196 186 176 1.6991566319935898 26 232 28 223
2510 -2.9560113859091257 0.86313188478379799 5.9255237583050668 182 188 186 0.66607318455009756 24 1007 35 4086
152 -1.8034060325380994 1.2131210548917759 5.3268593530979924 229 239 229 0.95435860269075112 24 2029 19 2001 18 1527 20 1815 35 2173 30 1334 17 1114 22 1686 31 3268 27 1229 25 1556 29 886 23 3412 21 3206 5 1641 3 1607 26 1460 34 1664 28 1272 32 1011 33 1515 4 1249 6 1284 2 2398 1 2312 15 1532 16 1595 14 3293 12 1901 13 1907 7 935 8 1609 9 1153
2509 -4.1463487018980549 -1.1469761299364969 12.448126814236923 120 125 113 2.2119673246273575 24 3907 35 3913 34 2787
5238 -3.8863740013568862 -3.035032685322737 12.335062417071862 17 31 29 0.54591969654438899 17 869 27 2625
151 -2.0294906773608776 1.2237938686721646 5.2682856165127641 47 49 56 1.266934273359462 24 2028 19 2045 18 1477 20 1845 35 2150 30 1276 31 2626 27 1266 25 1212 23 2297 21 2217 3 2409 26 1155 34 1694 32 1238 33 1512 6 1934 2 2434 1 3395 15 1130 16 1213 14 2192 12 1884 7 1768 11 2250 9 1442 13 1950
2508 -2.1427178406934697 -0.39479671762062385 5.456797682548518 140 133 123 1.1471454497132245 19 3848 35 3851
149 -1.2539851180752009 -0.26997852600848021 5.1644878781398251 1 4 3 2.0931283364841713 19 3755 18 2205 20 3578 29 1422 22 2256
2506 -1.6929646103987834 1.1585481451474748 5.3423422231605073 48 55 55 1.6628795757988308 24 3641 35 3759 21 4144 26 1340 28 1880 32 1187 6 1950 16 1818 12 2823 8 1606 17 2079 13 2784
12779 -2.0326664171505038 0.52692744437354144 5.0789624340051169 180 190 189 1.8799406663322817 3 527 4 347 5 543 6 305 15 198 16 203 14 282 12 278 13 213 7 181 8 176 11 207 9 184
5234 -1.6236412467231942 -0.22170927700180465 4.989013186908112 58 102 109 1.2479592255071832 19 1694 27 2563 23 3763
15507 -1.9970943217279127 -0.95897317025532858 4.6765215217414786 0 0 0 2.1061187618845909 27 3822 28 1452
2503 -1.9196507350928067 -1.0424520304793579 4.9270816744861143 67 58 60 3.2912543687038642 18 2497 35 3599
12776 -2.0162619680355922 0.52901373492222459 5.0864246609143091 184 196 196 0.8947343107749467 3 422 4 346 5 327 6 295 2 467 1 350
5232 -1.1233485983871345 -0.10759892876518477 5.1425579044466811 39 50 69 1.1898918999640049 18 3086 27 2548
15505 -1.8208377398228628 -0.41609220161796412 5.1963506488185605 79 75 74 3.0488869203320639 18 2457 16 454
2501 -1.4731672753651031 0.90053473091902847 6.3051320667170092 77 92 89 2.7567672326446102 20 3218 35 3300
12773 -1.4428466023608344 -0.44995034601434225 4.9710827762688119 14 18 27 0.31859214886617682 18 231 6 275
2499 -0.81323725822531978 -1.074191927145534 12.150370498537454 174 175 179 1.0016071084231757 35 3238 17 1689
5228 -1.71764169697544 -0.25907164272629429 4.9471314246641889 75 88 89 1.0336795421920744 18 2747 27 2489 5 1315 2 1708
5227 -1.1427619928597608 0.13661781868535577 5.2002624172738834 39 48 47 0.74719446866063377 22 3348 27 2461 26 1713
2497 -3.9651329296252307 -3.2303154319560199 12.363608571184505 95 85 81 2.0952205686035636 35 3184 31 4187
5226 -1.1439473546531864 0.19514688535140942 5.2290723465986471 41 51 52 1.5843155707896708 22 3719 27 2457 30 2124
15499 -1.0400316645225562 -0.30145982585515829 5.110013297600176 54 49 46 0.73188212913621387 16 426 12 2174
2496 -2.8573075005163555 -0.13611111416116747 4.6757705969557719 51 51 49 1.6157344946531556 24 1865 23 3183 25 2225 35 2963
2491 -2.2921509344447197 -0.57267481786949759 4.2361102022269099 52 51 46 1.3051968523505466 24 1013 35 2422
12764 -1.9417859945582214 -0.31916426548575833 4.8769762380663977 2 11 16 0.2434197687934482 25 2009 6 216
5220 -1.2720988952169872 0.79595523268043067 5.3511697482218032 71 81 80 1.5618528425937246 31 2257 35 1652 27 2384 25 1749 23 2539 21 2318
15493 -2.004850125085512 -0.0068697961562717855 5.0838829449714691 60 69 64 0.35398283257396279 15 360 16 401
2490 -1.8780576695832969 -0.56875427724777849 4.834588691201696 10 11 13 1.8000662723286087 18 1976 25 1900
5219 -1.2414154735942682 0.80372348517081182 5.3626226537709263 13 23 22 1.5015037425451769 27 2383 25 3190 21 3110 35 557
2489 -2.0237153593836466 -0.5961544074333871 3.7005713571708605 4 4 5 1.357218280285807 24 1394 35 2381
12762 -1.8473177384306032 -1.0019822526595537 4.7182334752593604 23 15 13 1.0363824367608123 18 2590 6 205
5218 -1.1265323042026447 0.30545286009926303 5.2186251203121019 43 53 54 1.6140241001614259 30 1230 26 1358
15491 -1.9202270305034779 -0.4536308908480286 4.8749469225442663 53 52 50 0.45622859448383507 14 2531 12 2237 9 971
5217 -2.8291284394798315 0.54984030920418137 4.8696420685760051 71 71 69 1.0278984389093446 31 3444 27 2331 28 2110
2487 -3.7126700392555856 -2.2444759685752027 12.597106117881317 191 189 190 0.10673228424347864 19 1242 35 2205
12760 -4.8702200797774502 -0.16207000329808971 12.970056589410955 193 175 171 0.80540942560028972 4 156 6 186
6255 -2.4925572292829585 1.5544556157627465 5.233570022632323 33 32 37 0.79411583677537656 20 2519 24 1761 25 3897
1168 -1.8114037094482498 -0.3042992947257902 4.9179250916905142 29 34 37 2.2585532169897489 19 963 20 969 27 924 26 2559 28 1736 2 56 25 2198
11441 -2.0115240345437146 0.55648494240169666 5.0821243266351779 152 156 156 1.1010120509708401 3 3987 32 3474 2 4042
12689 -2.871225919033805 -0.14786881331020246 5.6786078623350527 6 14 17 2.702449891211721 20 1702 4 1164
6254 -2.4310526283112663 1.548326418337421 5.2467864097381796 8 8 10 1.3730171157994551 24 3545 25 3896 6 3040
1167 -2.8909465184051868 1.5491059662456712 5.1847367666753454 152 147 135 0.4773271549712233 27 1757 6 882
11440 -2.1611519723388164 1.2382546369048875 5.2308336631738772 130 139 139 1.8950475996442586 22 3590 32 3471
5145 -1.8309983910157452 -0.48204991619609977 5.687023740813121 60 69 66 1.6546097007540661 17 1932 27 1815
15418 -2.8903482363979145 0.962071591884199 4.8436562420872784 222 219 212 3.2042519388983886 19 21 16 13
58 -2.1943899648784315 0.32053333765611525 4.9811261550986918 47 57 56 1.5594560636167847 24 879 19 581 18 627 20 627 35 817 17 541 30 577 22 759 31 1012 27 686 25 532 29 432 23 863 21 772 5 552 3 535 26 636 34 666 28 626 32 580 4 474 6 394 2 894 1 648 15 422 16 452 7 572 8 327 11 446 9 411
10331 -5.5255976331592249 -5.4127762109060589 9.3889394432731326 167 161 145 1.5502445474364215 27 605 34 940 32 682
2415 -2.1759542348523246 -1.1475385626241119 5.3550792971173991 163 163 163 0.81571146438785691 24 2175 35 4050
12688 -2.9180198694702644 -0.039535991439997802 4.7877714635251793 0 0 0 0.8555452531780845 26 2065 29 1452
6253 -2.0212639671798303 0.55959575625707403 5.088457847048355 29 32 42 1.8021884158773658 30 3073 31 4708 25 3890 5 4174
1166 -2.2133669695509575 -0.24136317752884726 4.8254249786977859 41 46 44 1.1835209349250095 19 993 20 945 2 4072
5144 -1.236151673656583 -0.18182489133814653 5.1076158783783319 45 54 55 1.5180727980108657 20 311 27 1814 21 1184 23 3369 16 301
2414 -1.7704496942260164 -3.1856888084326904 11.171414804300731 168 173 167 1.3742124450333659 24 3981 35 4014
12687 -2.4966937542453915 -0.26751425757332647 4.7522412770389746 49 53 56 1.0749505614515584 35 3467 4 943
6252 -1.8826895951806422 1.392555793516518 5.3304665965812594 19 19 21 0.76911227102508106 27 3910 25 3887
1165 -2.1143491042512128 -0.27840162629844706 5.1209544498053221 81 90 89 0.029706903062141202 19 960 20 941
56 -2.1545035610861265 0.3171716247592411 4.9880622214987804 40 50 49 1.4723270968320292 24 877 19 579 18 643 20 625 35 818 30 576 31 1003 23 1149 26 693 34 664 28 623 32 581 15 424 16 450 14 447
10329 -1.9893591008696152 -0.23162822222605575 4.8879510701345463 31 32 27 1.9533552708228907 31 3135 34 852 16 683
2413 -4.8082502745443607 -3.2858867608509756 10.43485441666658 202 175 168 1.9180525313479451 24 1110 35 3997
6251 -1.3567412946176873 1.4696438716651949 5.5158104907957455 93 99 101 0.58978692466076843 19 3613 25 3865 3 1600
1164 -1.9836326050101349 -0.16686838558684491 4.2269037515627685 53 55 55 0.49004122829191643 18 3162 20 935
11437 -2.0779364699176153 1.2057762459054866 5.2468850476803484 44 53 50 1.01511663724364 31 4983 32 3454
2412 -4.4300979737610113 -4.7660451992349477 19.195428538063272 98 92 80 1.6962480983286605 18 3364 35 3986
12685 -2.7797925581729137 -0.13895241156600385 4.8800523599093371 1 7 13 0.68554709476274278 3 2556 4 920
11434 -1.8727759190854292 1.2098699562879336 5.2966194148231018 140 150 151 0.33116319694180169 30 3623 32 3422
2409 -1.1568232515887265 0.23207888492756265 5.3436086369112097 28 32 35 0.39459394160689099 35 3958 34 2279
6247 -2.2981848526743307 -0.2072371493567878 4.8169036783999859 58 65 67 0.88446720450997485 35 2919 25 3832
1160 -1.9949928617459836 -0.34481797025549915 4.9474404725465222 196 193 189 2.0976218383626528 17 1034 14 716 12 475
11433 -2.2045713016601325 1.2336410745510595 5.2243707985658681 142 150 152 1.92784956438502 28 2285 30 5217 31 4673 32 3419 1 4310 16 2528
6246 -1.9301247886522614 0.79457920626499479 2.5207759049534744 100 103 83 1.3935912199976861 22 3519 25 3820
1159 -1.8808107479913163 -0.34878465190120267 5.0629224176890837 188 198 191 1.6125168481410175 20 914 12 337 14 323
11432 -1.906815048460766 1.2058984095943466 5.2978765958527712 126 136 137 0.98320416385206177 22 3586 11 218 9 194 32 3411 8 253 16 187
2407 -2.325138101083474 -0.79058769778377724 8.3263896949090448 158 147 146 1.228711124967325 18 2568 35 3922
12680 -1.9361036052866947 -0.98394443348245408 4.8133217766555489 65 66 68 0.072833303679660163 5 933 4 814
6245 -0.27761662193760223 -6.496790450383779 11.754502595050804 164 142 125 1.84905232689212 22 3394 25 3815
1158 -1.4711106616104219 -1.0694832431616883 12.325468713714686 204 224 242 1.806725781252865 18 746 20 908 17 833
11431 -2.1466061996037813 0.55066999886557022 5.0502962947750181 40 41 37 0.77780517737903665 31 4954 32 3406
5136 -1.7658110787935966 1.1759192165280432 5.3240569507784548 4 17 22 1.973542598495194 24 2751 27 1722 25 1590 21 4148 34 3583 28 1922 32 2518 2 2678 3 2311
15409 -2.8046109401268815 -0.0016833773000098657 4.8728974082967493 5 7 5 0.3513016454507995 19 2997 15 2404
2406 -3.1281631017450211 -1.2057665778958786 13.431887647626574 113 127 128 1.421564963134641 24 3935 35 3920
12679 -1.9470255072973595 -1.1116867975818989 5.290192424278275 18 9 20 2.8277868397973203 3 1045 4 734
1157 -2.036037461495074 -0.28549848917108189 4.8600961552132782 31 35 36 0.97091239980790911 20 907 27 2047 29 2037
11430 -1.8941255243219322 0.54475823316429961 5.1225393734454192 124 131 133 1.487883151679062 31 4773 32 3403 16 1769 5 2326
48 -1.9560682475809514 0.2446697759225808 5.0246714706206301 179 188 189 1.6972115016297904 24 654 19 370 18 459 35 636 17 398 30 430 22 570 31 686 27 543 25 388 29 368 23 632 21 777 5 434 3 414 26 487 34 626 28 603 32 515 33 538 4 337 6 297 2 917 1 653 15 233 16 278 14 311 12 307 13 317 8 196 11 200
10321 -1.4298506045189174 -0.049323799428713851 5.0772441028205924 78 85 80 1.7214661464137082 29 1372 34 528
5134 -1.2363412366296787 0.44244900291614619 5.2614588157734561 13 18 22 1.5167053818112839 31 4246 27 1703
2404 -3.337410176035609 -1.1442243542992898 12.648293803718685 105 122 117 0.26928280454587311 24 3934 35 3918 5 3651
1155 -1.2321445186770401 0.33707116738411008 5.481174675541892 38 42 45 0.79964357392209862 24 222 20 895
5133 -1.1711942283501551 0.38425667873735248 5.2707988606941329 13 19 19 0.96712963400895413 18 2666 27 1700
46 -2.2148838914145088 0.26524098801381596 4.960496433532307 179 189 188 1.3193690715545565 24 652 19 372 18 461 20 448 35 633 17 532 30 429 22 528 31 674 27 542 25 387 29 316 23 590 21 579 5 429 3 421 26 613 34 624 28 601 32 518 33 546 4 339 6 335 2 550 1 650 15 288 16 312 13 313 12 250
10319 -4.1334536444394692 -3.4316906305284158 12.497070455223446 103 91 91 0.99151414933839233 26 313 34 484
5132 -1.2212341755855676 0.38317224039303643 5.2427726023089729 79 88 85 1.2245241422202711 27 1696 23 573 14 1269 30 1040
15405 -1.3355606676886598 -0.45169049157825675 5.0067880848342341 94 95 91 0.017233721613522546 15 2210 14 2623
1153 -1.2476193284339652 -0.24378253690492055 5.1809283511182045 18 25 28 1.6744133979384515 19 2813 20 878
11426 -1.9662297820876458 0.44310565444146099 5.0738009778328443 77 88 84 1.9916928219879497 19 4425 27 2300 29 1851 35 3785 4 1804 32 3378 15 2107 12 2941 9 1545
2401 -5.009213216467681 -0.71395136000217818 10.757999013684495 168 130 123 1.5844286629774551 18 2894 35 3911 24 3779
12674 -1.5209958677209414 -0.42904240941263605 4.6154480055358809 10 14 17 2.055784396153971 3 1780 4 625
1152 -2.0460900815722129 -0.091804254592479109 5.2617172923679423 70 80 79 0.5661967673043693 19 1663 20 876
11425 -2.1903415121608187 0.52695819725197712 5.0299846864925604 77 81 80 0.35190399252890392 18 1659 32 3377
43 -2.2144407262248165 0.33946985355321141 4.9814870306048578 186 195 194 1.4089179829188394 24 649 19 368 18 494 20 443 35 628 17 402 30 517 22 548 31 1001 27 498 25 395 29 384 23 813 21 769 5 426 3 424 26 632 34 616 28 628 32 526 33 491 4 342 6 301 2 621 1 455 15 292 16 266 14 445 7 266 8 328 10 612 9 412 12 417 13 522
10316 -8.9611441190961738 -4.9136029217019281 8.980831543201262 143 100 56 0.33074360480052478 26 346 34 283 28 337
2400 -1.6278379322770464 -0.16466946960847262 5.6343707764244728 65 72 70 0.59666088261219508 24 3366 35 3892
12673 -2.4149461979608895 -0.2675518099061811 4.7661710016538192 9 10 15 0.79692233829129411 18 922 4 620
5128 -2.2969693853890001 0.57263216874237977 5.0149216451615386 201 217 216 2.0973855109556561 18 3478 27 1667 25 2505 29 2509 25 3758 3 3924 7 2429
15401 -1.4381470327834134 -0.22548427796325871 5.0315365259584102 23 25 22 1.5748686023802723 15 2098 14 5190
41 -2.0254271048504315 0.55951746515904499 5.0869773910645293 37 45 47 1.4367856824713328 24 647 19 396 18 488 20 475 35 802 17 728 30 678 22 714 31 934 27 661 25 543 29 549 23 818 21 898 5 541 3 526 26 568 34 740 28 671 32 570 33 664 4 355 6 311 2 629 1 689 15 394 16 395 8 336 9 255
10314 -5.3708489046354497 -4.8351590494155516 9.5435651606775629 224 219 200 1.321320598352435 27 380 34 273 33 234
2398 -2.1428053910157328 -0.38031486961846445 5.4606006232718967 140 131 123 0.93961504901587301 19 3852 35 3868
15400 -2.8925255712478637 0.08422808507979998 4.773211952539814 56 56 54 0.15158720081104934 17 1741 15 2085
40 -2.1492809527714871 0.57081411018172401 5.0570221410225455 186 196 198 1.0347533488654561 24 645 19 399 18 489 20 434 35 624 17 569 30 677 22 675 31 713 27 659 25 553 29 484 23 821 21 901 26 577 34 632 28 571 32 533 33 661 15 441 16 389 7 419 8 333 9 366 11 387
10313 -8.684835697895755 -4.5830395257094194 9.1470436899492817 209 161 111 1.5808326726433497 26 265 34 251 32 195
6235 -1.1367766833788822 0.47916204510108495 5.2979359853509118 90 95 98 1.2035228782161316 22 3783 32 1312
1148 -2.1707939780394025 -0.87263004551079171 4.8749948393822509 10 10 12 3.5636202574855957 18 1096 20 862
11421 -2.0216164520547322 0.5921815886382602 5.1004969474611066 131 137 137 1.5266690337459621 32 3360 33 2592 14 3699 15 1689
5126 -1.2362051082330874 0.45536004778129319 5.2619809792317582 16 22 25 0.87450218957118731 31 2300 27 1659
15399 -1.1209119129370941 -0.14109489814630402 5.1479364755425925 46 52 50 2.9854560195267807 33 998 15 2075
39 -1.8006263888934473 0.58646038495162323 5.1538754792054933 191 201 200 1.5507132781123367 24 644 19 384 18 376 20 343 35 623 17 412 30 527 22 703 31 845 27 491 25 386 29 375 23 938 21 924 3 418 26 429 34 438 28 465 32 377 33 359 2 468 1 457 15 302 16 280 14 388 12 291 5 423 13 336
10312 -4.0410675751723497 -2.796501585571312 12.772699689192152 192 185 186 1.78811198660404 26 167 34 135
2396 -1.1444139178471093 0.5814718744147348 5.3348243400250865 102 109 110 1.8404186526846149 35 3825 28 1833 18 1598 32 991 20 3492
11420 -1.8915073361026797 0.58187420332852313 5.1268881567218383 105 113 108 1.3028562912125567 22 2150 32 3356 14 2032
38 -1.8623163306824089 0.5934396614759716 5.1378352462405639 187 199 199 1.3908743475119056 24 642 19 555 18 606 20 654 35 854 22 741 31 1625 25 499 29 455 23 1414 21 926 26 569 34 588 32 487 1 4789 15 407 13 477 8 346 11 464 9 431
10311 -4.8332229737246575 -5.4724518801675623 9.5532239498495652 227 183 184 3.2281312691136614 27 236 34 125
2395 -2.2353184882561918 0.59405244676496061 5.0371894614131643 4 16 13 1.2911389793803645 19 4473 35 3823 31 4706 29 1882 17 1405 28 1829
6233 -1.7790927835194825 0.52123852928829206 5.1413971362655113 36 40 44 1.6595662160436468 25 3689 23 4943 21 4208 34 2955 17 727
10310 -2.779745255195115 -0.019298883022376014 4.9224851293113066 33 33 31 1.6976349455091804 27 190 34 94 30 113
