# 3D point list with one line of data per point:
#   POINT3D_ID, X, Y, Z, R, G, B, ERROR, TRACK[] as (IMAGE_ID, POINT2D_IDX)
# Number of points: 402, mean track length: 3.9917229361794817
14583 3.8931155853384367 3.0213473672220394 1.5102617219348562 252 231 167 1.5231494413503268 29 1616 37 1722
4311 0.60088694396432241 2.9313508290069019 2.9083916189777268 109 106 66 0.81056382134816507 77 4184 55 2814 67 4270
14584 1.8079939659441986 2.4643475775739612 2.8221302970084023 214 202 154 0.55039411886629952 29 1939 37 1755 25 2173 31 1133 30 2506
4312 1.6371561247769921 3.0016138802437737 2.5011418664643106 93 89 25 0.20399673447547603 77 1818 55 2815 67 4633
14585 2.2725226425402183 2.0012682869105896 1.3450066949270814 0 0 0 0.21851043538101722 29 1549 37 1756
4313 0.9786257043212272 2.7697778983328059 2.417112606282541 36 48 44 0.34747401498947122 77 2791 55 2821 67 2745
14586 2.273464257658862 1.8993542605369211 1.6623170416995809 221 187 137 0.29177366233739122 94 1638 37 1763
4314 1.5432499457173141 2.856933457902918 2.309862277911686 47 55 25 1.7619297828893801 77 1359 55 2822 67 4593 77 3595
14587 2.2902005310456777 1.7115881632573968 2.3088808749574299 193 162 118 1.3529813516348743 29 1556 58 1720
4315 1.0683725029082505 2.8743948313097265 2.4395203978809357 95 93 48 0.31415570723049163 77 4224 55 2827 67 1835
14588 1.7999942062055745 1.7701096076616976 3.2949328796994179 40 39 42 1.7634365373359679 19 736 37 1813 25 1070 5 724
14489 1.8176916389381803 2.887881842388321 2.5140880871234925 70 81 87 0.6282288875270553 58 1981 29 2240 37 2183 31 1622
4316 2.0580102048650977 2.7428266755272577 1.6342918579424794 74 87 94 0.26488838169633061 77 2777 55 2829 67 2893
14589 3.0676897474806148 3.1494156351315019 1.0310297220487628 25 18 20 2.6559815291349373 58 2417 25 1525
4317 1.8809607761277283 2.9844285257162215 2.2055318888825886 100 101 40 0.80199377965030949 77 4178 55 2830 67 4632 61 4085
14590 0.98722039522559724 2.7337476968363186 2.3064114816296502 62 72 41 1.8933063405918569 4 1232 37 1892 26 1168
4318 1.0268302119112289 2.9149783094543213 2.5189233451702462 36 44 39 0.44547668673016733 77 1845 55 2831 67 1087
4319 3.0621307632295593 3.1236400599326579 1.8650661684408647 53 60 45 0.59252860867081802 77 2743 55 2836 67 2889
4320 0.74475501521640197 2.8721615920412509 2.600433115767518 96 110 104 0.16620988007785689 77 2681 55 2839 67 1836
4321 1.6790180262561307 2.977229673002574 2.3160356726684279 61 65 25 0.42294471303701636 77 1802 55 2841 67 4279
14594 1.8589855783116391 4.1338024947081697 1.5750752664239076 128 78 58 1.3375733690098439 4 531 37 2032 26 1422
4322 2.0875990767715313 2.6993406646193869 1.6037620339200103 72 84 89 0.40622166414203686 77 2747 55 2848 67 2898 66 1940
14595 1.8047702934036314 2.4240544943464055 2.8151580240114349 169 84 67 1.8499747311556918 29 2262 37 2085 76 2373 5 2410 25 1472 60 1901 30 1919 97 1717
4323 0.61721200092960327 2.938810398700225 2.8549364645917508 101 101 68 0.21215324852121764 77 4221 55 2853 67 1797
14596 1.9061602721064208 2.8064994703918109 2.1377209085591136 214 86 65 0.47311485360730593 46 1857 37 2103 76 2482 29 2015
4324 3.2099330968846607 3.3631405217863546 1.6655546205394816 99 101 57 0.69601428917141739 77 1927 55 2858 67 2553
4325 0.72843287527801193 2.9529389683943283 2.2198832236005246 101 96 52 0.13690176786698396 77 3936 55 2861 67 1931
4326 0.49098704398263132 2.9252369523719932 2.2923431290447245 74 84 83 0.36419427805858645 77 3989 55 2862 67 2555
14599 1.8168308167468687 2.8789070632771199 2.500083476686322 41 48 48 0.62942521294110676 19 1962 37 2175 25 2245 31 1073 60 2659 30 2527 97 1694 41 1419 52 1132
4327 3.3786765134731525 3.4012011959234489 1.6543609949782063 58 61 32 0.14756606572443576 77 2896 55 2863 67 1930
14600 1.8446135974649378 2.9399441326335758 2.4022250101972835 35 42 41 1.4811491582831169 58 1989 37 2181 31 1627
4329 2.9602320005218123 3.2725344792934936 1.6857760651822975 62 73 68 0.46591320833810274 77 4329 55 2878 67 4342
4330 1.4599426460719196 2.9213136323369047 1.8609875405012248 52 53 23 0.82513011553332571 77 2839 55 2885 98 2453 61 2402
4331 2.81302598175483 3.2004629089665024 1.4941597059664762 45 49 32 0.18126408117109327 77 4266 55 2891 67 2460
14604 1.7584003351469175 2.1693950897289809 3.2762295513480875 181 83 59 1.2938651559046495 58 2409 37 2276 5 2432 31 1155
4332 2.4204777727448765 2.7812043461239835 1.0041797425250556 83 99 110 1.2695059697995221 77 4244 55 2894 67 3931 67 3955
14605 1.8271658480025614 2.9282407681287159 2.4517219881702226 42 30 30 0.98043199766125 58 195 29 302 37 525 90 1135 94 956 25 960 60 2617 30 1598
4333 0.64519200595280657 3.0050793707142782 2.275190870565396 67 75 73 0.1104861933247861 77 3962 55 2897 67 2470
14606 1.7740457022850691 2.0847352051834385 3.106555035657554 99 87 56 1.1366698822060259 22 1161 47 1361 4 605 26 739 90 959 91 2693 16 2165 12 2654 45 2656 37 657 90 1929 94 1568 58 1088 76 702 25 923 5 992 31 570 60 1701 30 1187 97 1714 41 1014 52 327
4336 0.92963712158307055 2.9804077933290105 2.1038831027815754 102 105 73 0.80673978645826649 53 1530 77 995 55 2904 67 4038
14609 2.0612123461806626 2.8296898230449297 1.6880181673236505 247 243 191 1.5397232158759511 90 2460 47 2800 4 2083 26 2122 94 1980 19 1649 46 1869 58 1516 29 1954 37 2040 8 1753 9 2452 19 1634 25 1829
4337 2.0746003907304571 3.0943546138204878 1.7279820290463119 23 30 35 0.16670921747205739 77 1907 55 2906 67 2473
14610 1.8404814602532531 2.6053719192735887 2.6126399419561879 41 31 29 1.1775336892104469 90 1297 22 1894 37 1344 58 2259 29 1929 76 2454 29 1923 25 1292 5 1568 60 1592 30 1638 97 1624 41 878 96 837 86 1263 23 1459
4340 1.2757243539040797 2.9343211786680126 1.8847845153698108 57 65 21 0.40571216211090055 77 2796 55 2914 67 4052
14613 3.0283198878503708 3.1692815650362425 0.96926950104664034 77 58 67 2.3309138522700206 58 436 25 288
4342 2.4618220390047187 2.6552701024403964 0.99491143253551051 54 56 53 0.58762190246321888 77 4116 55 2931 67 2985 28 1857
14615 2.3081341074212984 1.9327461484320898 1.6142222480605466 221 184 129 2.4400452741316014 29 1552 37 1762
4343 1.5583495942049228 2.9331511115310884 1.988705289550682 69 75 50 0.15556908773174882 77 2865 55 2937 67 2866
4345 1.6306525257157389 2.9713708829166126 1.8768591134922694 57 62 22 0.36156478978763112 77 2890 55 2954 67 1949
14618 1.7954547828442586 2.5038304764845263 2.8319057490792034 193 87 63 1.0044413652860991 29 1963 25 5 76 6 5 4
4346 1.479904334119537 2.9371160707264066 1.8968500809456437 131 150 136 0.22238075795335033 77 1924 55 2955 67 2510
14619 1.8222402267338802 1.9253178293157707 2.8448043254183299 97 66 49 1.7915282584529009 29 979 76 9 25 1111 5 2005
4347 1.1898911093614237 3.0224164503190747 2.2079678267999232 37 45 40 0.055889832726347378 77 1922 55 2957 67 2522
14620 2.1066693055024257 2.2318128934088159 1.3020760931819026 40 51 20 3.5729656796872389 29 26 76 17
4349 0.47388129281609259 2.9125454773834543 2.4083801138307535 34 39 33 0.063817130924932783 77 2818 55 2967 67 2530
14622 3.1631784078864871 2.3311007488124789 3.7113907451202262 119 72 55 1.5017873918556421 12 58 76 32 45 53 25 32
4352 2.7851500756349341 3.3328505053901738 1.3615750437821545 54 66 52 0.29745378693957669 77 2453 55 2995 67 4098
14625 1.928810890801814 2.3480181539667884 2.2781911076477659 25 19 23 0.10936336959994972 29 1045 76 45
4353 3.0655637093596391 2.7034732678513054 2.6416810863844007 50 61 64 0.32579856766405085 77 3242 55 3001 67 2019
14626 1.7632063587790665 2.2018773350476888 3.0582508987650243 107 52 42 2.197185926221644 12 132 76 53 45 136 5 37
4355 1.3829668859134845 3.4688337408314593 1.3344393998619184 92 91 56 1.1292373803087512 77 3592 55 3015 67 1672
14529 1.9259992133783883 2.324044955995773 2.303577037827595 54 63 50 1.7153915076670023 58 1093 37 396 31 1009
4359 0.95146654386872076 3.0700399560931553 1.6625856400782462 97 112 99 0.35233685173643803 77 1530 55 3041 67 1572
4361 1.653197046768563 2.6519654076621659 3.1772744689087555 131 151 138 0.14276069197291175 18 1144 55 3048 67 1169
14634 1.855497096771227 2.0013180985112222 2.6699194640484949 33 21 22 2.1008095708438415 29 146 76 175 5 1219
4362 1.9478451146730169 3.2213135735136125 1.7968808017275479 88 94 22 0.20202481856280977 77 2552 55 3058 67 4134
14635 2.3448431833864865 2.7510480321250217 2.1477352838671075 86 86 72 0.44844289087491401 37 154 76 176 25 165
4364 1.5413757678981053 2.9224365813766933 2.0518432811409371 109 121 108 0.10245384665084312 77 3001 55 3068 67 4383
14637 1.9548164440182523 3.1306623588395937 1.7833377752400981 20 22 33 1.6832092444827369 29 2176 76 200 25 463
4367 2.931161933755785 3.1490034594484544 1.4974775040903741 45 54 49 0.3722734635279612 77 833 55 3073 67 2563
14640 1.8554932154483272 2.2395781100452656 2.7121409800618177 30 23 25 0.11505787172142162 29 584 76 226
4368 3.5338505545022754 2.4864469593110923 3.0866818242524565 15 14 7 0.90577443425127457 18 2256 77 2268 55 3076 67 2205 98 1317 61 1348
14641 2.0854734134060702 2.8827726502424706 1.6160727618970674 2 2 3 0.46112722668132566 37 213 76 230 25 174 5 183
4370 0.62406042452082888 2.9859954986897566 2.2069204973290306 57 70 48 0.31080821818218274 77 3884 55 3079 67 3942
14643 1.8688071642088502 2.6068810617084348 2.598607253036421 153 81 59 0.79910129330978408 47 478 76 257
4372 1.9933690791226977 1.7974746142508009 2.5916258583737757 20 15 13 0.2957106616447861 77 1384 55 3096 67 1399 18 1321
14645 2.0744646985980277 2.3061586754207082 1.4348130719401535 36 36 40 1.8782255568140358 29 1609 76 300
4375 2.0490990886626772 2.0837855491378949 3.8429663511535703 22 16 16 0.12054895360149251 77 1386 67 704
14648 2.3511371276051758 3.117469839468554 1.2122636143964514 54 66 48 0.71160501519367281 12 1166 45 1277 76 322 75 2258
4378 1.8951242231552088 2.1907287420242336 3.6486071771672708 23 20 18 0.1133768640374649 77 3046 55 3125 67 2309
4382 2.9698794518686276 2.399578862099633 3.4897137145937118 25 33 47 0.42328902468069768 77 2287 55 3137 67 2297
14655 1.8266035184770888 2.6879888073579017 2.6343545212842381 174 91 65 0.78547306212159906 29 246 76 503 25 310 5 303
4383 1.9626661582564879 2.0904896818485637 3.0692864354394445 33 24 21 1.3290402024633732 53 1267 77 3279 55 3138 67 1316
14656 2.3978379638025635 3.2740195649038273 0.93546754003158317 47 57 41 1.6187563619193028 37 430 76 509 25 1105
4384 3.1748913209875274 2.3381476966523751 3.5019640929092444 16 15 10 0.11024139631301809 77 3065 55 3141 67 1394
14657 1.8239094487078127 2.0217734891778831 2.9018528883885613 16 13 19 2.1965205850365628 29 1494 76 521 5 526 25 359
4386 2.0394199423323314 3.4577715502095421 1.2051462552403367 85 80 18 0.25618176579118884 77 2032 55 3157 67 4443
4387 1.294483843458617 3.345066111198594 1.3582038071485099 45 49 23 0.68170445813415526 77 2222 55 3165 67 639
14660 2.304807690822146 3.2030462880056971 1.3855331920267255 112 113 99 0.4660017330011943 12 1746 76 532
4392 1.9821703498807228 2.3712192268887895 2.7167068001291783 255 255 253 0.1127035785481898 77 3104 55 3194 67 3155
4394 1.6958587863719912 2.5309075448508911 3.4019061896646279 78 80 49 1.0486412900728803 18 3587 77 3119 55 3217
14667 1.8074879748585997 1.920724840028899 2.985590162631933 222 191 119 2.0477486060917789 29 1514 25 1085 5 1177
4395 1.8514116897652524 2.4872711040580429 3.2469428986017093 94 105 99 1.4301568485038412 53 2249 77 2401 55 3228 67 2348
14668 1.7833108748021318 1.9393507820507285 3.031479478305676 28 19 19 1.825099776889926 37 424 60 1213
4396 1.855132700997993 2.3624443442544973 2.8624088499713687 39 36 28 1.7048619094486734 77 3131 55 3229 67 3201 77 2936
14669 1.8073034580264027 1.9973595442386527 3.0255800514766471 64 30 14 1.5227755531365692 37 1568 31 381
4397 2.9324653563831804 2.5512933309487562 2.738664452025251 50 57 45 0.22365452945547959 77 4570 55 3230 67 3173
14670 1.8293374242340346 2.1435441065734016 2.8807299029582607 197 189 148 2.3211322394933172 37 650 76 685 31 1357
4399 3.4561428616963279 2.7966974984427155 2.499338520367103 51 62 63 0.12699974991887461 77 3164 55 3254 67 3234
14672 1.8585376278827173 2.2019579154494981 2.8652541704354308 42 24 19 0.48312278824859267 22 1137 60 579 30 699 97 544
4400 1.4657703048869763 2.6249574029837555 3.1521809117974584 85 94 61 0.18907694790792948 77 3760 55 3282 67 3786
14673 2.0060434276389607 2.6527175943610906 1.768312578453161 7 9 14 1.9639607556226055 29 1260 76 700 25 1088
4401 1.5678700655803768 2.6348695311464256 3.1265634956414332 41 49 45 0.18845772404259789 77 3766 55 3288 67 3787
14674 2.0883094820248935 2.8087052508939698 1.676277893184869 24 19 19 0.90715953836636254 37 1055 76 706 25 1863
4402 1.561369821622568 2.664590564755335 3.2065368837586603 106 101 47 0.45782839293686317 77 2358 55 3289 67 3788
14675 2.0820226808804772 2.4839524831284017 2.3537791281748461 31 18 14 1.3177480961097876 29 259 60 1128 30 1300
4403 1.4232913758324834 2.6826869313834796 3.3814363725687873 51 61 58 0.3021883687697437 77 3768 55 3297 67 3237
14676 1.9052338842138634 2.2349071371826854 2.2810967768815091 31 26 20 0.8084924544703409 29 1500 76 717
4404 2.1373068013946961 2.2544860568876048 2.097734584428661 59 53 46 0.12355725379226178 77 4833 55 3305 67 3287
14677 2.3956747016939062 3.0365592806074928 1.2734539199369042 49 60 34 0.61942646627905584 37 1636 25 614
14578 1.7794770696430384 2.3280284598142993 3.2001945127016596 102 64 50 0.63772576003119885 29 1677 37 1602 31 1905
4406 1.5354493741492978 2.560964489540976 3.307608436588453 141 157 138 0.11557318160342293 77 3235 55 3311 67 3264
14679 2.0200165822768827 2.3245536405314402 2.7556391799740245 58 63 70 0.406457994596505 76 723 5 1192 37 992
4408 1.1340451451064748 2.658570237021729 3.6705147270096679 73 75 21 0.4567270203123403 77 3185 55 3331 67 3285
14681 2.0697101950565853 2.6851845822435587 1.3410310753757326 51 63 38 2.1491663624111808 29 252 76 728 5 700
16095 2.025125142842962 1.7716456209775231 2.6948343976731919 87 74 63 0.36206481700261883 30 2042 97 1895 41 1690 52 1456
5822 1.9605026164724952 2.7042710787016366 2.1542695597010209 77 69 60 1.2935342821985165 21 60 81 97 24 93 66 57 64 180 77 265 55 269 67 254 98 243 61 165 83 57 59 59 80 220 56 398 27 398
16098 2.3582709882173503 1.9444699510445735 1.5944570450233069 238 207 149 0.42901223222275303 30 1738 97 1988
16100 2.0410757205362762 1.9684054949248113 3.0957047598559932 64 36 21 0.096744960773673366 60 1109 97 2089
5827 2.0700261052458506 2.771651601214816 1.6095122496934542 20 13 12 0.44258900357178471 61 2359 66 1305 64 2085 21 549 81 535 24 563 83 1963 59 891 69 1237 95 1066 20 1042 71 1690
16101 1.7587652032775352 2.263179773338611 2.7414809898834407 84 47 38 0.80675757495378841 30 1944 97 2149
5828 1.9075276982235534 2.9354827352413473 2.4699581191697395 38 25 29 1.2313427971500626 53 2106 18 2709 77 2087 55 2128 67 3703 64 3824 61 2620 66 4624
16111 1.9687704735198133 1.831606020896126 3.3811469386007067 85 101 113 0.38137567967730623 97 2494 41 2302
5838 2.2209544800235106 2.7611607180681168 1.0425878913518056 16 21 27 0.66761204381612849 66 20 83 22
16118 1.4177664533489536 3.1570327038069963 0.94441454006570424 99 79 80 0.29600415432876581 60 2162 97 2889
5845 2.0963683765666157 3.226218403382223 1.7949897009163869 78 82 27 1.2572689648226056 64 60 66 40 83 55
16120 1.9529876926407079 2.9724234957323579 1.8651282888816949 11 9 6 1.6828170949951775 60 1149 97 761 46 853 58 2143 29 1805 37 1404 25 1467 5 1604
5847 3.7220364121036695 3.0158188615273049 4.4091599163094415 20 25 32 2.3645923790082515 64 173 83 84
16132 2.5660650500967712 2.5858375013272239 2.3094589894216004 59 71 57 0.32518254725103451 60 77 97 190
5859 0.54122986684113639 2.9483481450260545 2.3148167540788651 73 94 95 0.28985184226930361 66 1053 83 626
16136 3.0142690640912755 4.5345622660797194 1.3580089333624465 85 87 37 1.3660736789813763 60 352 97 745
5863 2.171003661705174 2.7606891748142299 1.2539278658366264 34 37 33 0.15530718474198005 64 698 83 747 27 1232
16154 2.0004255671679592 2.1936556132111966 2.1608772953885724 35 25 23 0.12643396802837262 45 353 15 232 12 356
5881 2.0822515949568579 2.7088301287907504 1.6845361529212983 71 83 90 0.68831613531669933 24 920 83 1967
16155 1.2882592240039616 3.1287567647621906 1.6003862457731759 46 59 40 1.377848069290873 100 313 15 277 75 404
5882 2.1775587415075965 2.5931279236170575 2.5210903328637566 2 4 6 1.1622626544388091 66 3689 83 1981 59 1503 69 970 95 944 20 508 27 2474
16158 3.5024744393062219 2.4258600897413731 3.3173745489688735 30 30 32 0.10091156252546928 91 422 15 437
5885 1.8572677191727112 2.5236805307831536 2.8957040224442125 11 15 18 0.74257666051382076 64 3430 83 2101 71 3424 80 1466 88 815 88 1639 70 1378 87 817
16159 3.474360468622308 2.7776084173933606 3.7095624859934282 64 73 24 1.1683077948773424 100 910 75 927
5886 2.3859779960025329 2.7053191626765418 1.1071941316329192 17 13 14 0.37937499026938343 64 1247 83 2157 27 1377 79 2475
16177 0.53326116563451942 2.9971736669552582 2.0376390522684082 47 59 19 0.29314166577805989 16 1739 15 1897 75 2233
5904 1.8309514092601977 2.7226826198530145 2.906089190530428 53 41 40 0.56475037639191528 66 3539 83 3195 59 3189 95 1821 71 2415
16210 1.980924795167563 2.5134544394200131 2.3121029348010689 40 31 30 2.7190147880782378 45 68 75 20
5937 1.9251241863232971 2.2492309150534497 3.520919586550912 26 23 23 0.50577194805171533 83 3013 59 691 69 753 71 710
16213 1.9819984522902221 2.2349102441361972 2.2858404650070416 79 63 49 1.2255823699168993 12 41 45 38 75 38
16214 2.0976492147218195 2.4996480505552729 2.0575969069878255 16 13 19 0.89832587749891646 12 8 45 7 75 40
5941 2.1274213343857045 2.8921481234301765 1.2336033342350112 43 15 15 1.7993000893031426 81 800 59 894 69 2785
16215 2.1368305146485334 1.8594368805062662 1.9777348673559969 68 51 42 1.0405278851391382 12 21 45 19 75 42
5942 2.2438950491052894 2.720072976789218 1.5981798711878434 28 21 19 0.28616079578017078 83 2332 59 897 69 1232 95 1057 20 1082 71 1250 80 1278
16218 2.0513536942898258 1.9878883365510644 2.0535407983655714 85 87 90 0.64137463289997021 45 36 75 54 12 45
5945 2.1917622147302089 2.9697568888013048 1.236682189816743 15 13 16 0.13564455856895485 73 1365 59 917 95 1046
16220 2.0804000579629824 2.0953816702031554 3.0720936293534957 43 22 18 0.34188557090110194 12 76 75 59 45 76
5947 2.2712178607951339 2.6805240454775907 1.5637164477282879 28 21 19 0.40359910659724008 24 2657 59 1103 69 1293 95 1110 20 1076
16231 1.1464178047707976 3.3155121269811105 1.1723134888661082 67 78 21 2.4556459186711641 15 109 75 110
16248 0.97622121834482978 3.374188593897463 1.3444583569310571 54 66 51 1.999570078708236 12 90 45 87 75 266
5975 1.8428003869241842 2.5994118665317711 2.5922070633658376 10 9 13 0.65177771803219253 83 3266 59 2626 69 2340 20 2450 71 3927
16250 2.3052912844485136 2.9347885320991773 1.382154852204784 37 45 26 1.2322619302814868 12 59 15 1567 45 56 75 273
5977 2.1075401695462852 3.131985192617937 1.6057328588962352 22 28 31 0.054900874877617044 21 1208 24 1369 59 2692
6078 1.5906366003561847 2.7332811087043467 2.9398347236157423 26 32 28 1.5952743586112832 18 1134 77 1037 55 512 55 1219 67 1103 68 446 84 453 82 802 8 301 9 502
16351 2.0582880528249996 1.7041035286590638 2.5937199161765614 131 97 68 0.29405469503151926 12 2229 45 2264 75 3125
16252 0.80530302470607407 4.4962782122138689 4.4820561504907301 59 69 43 2.5169429250334971 45 1784 75 284 12 1630
6080 3.8039690941440791 2.9027587907843699 2.8294732340888777 74 88 80 0.4996858974639995 84 31 68 28
16254 0.69794321121100278 2.5763464439691415 2.9283490009303628 66 75 28 2.6177973848673721 12 655 75 290 45 638
16256 1.7969043112959893 2.1343606237476118 3.0151943304968483 137 123 85 0.090500669083374466 12 185 45 177 75 315
5983 1.9408655322575112 2.1189830518165484 3.3407089339169236 199 196 182 0.63100890359063322 95 1949 71 805 56 311 59 2905 49 339 6 309 38 207 99 465 48 510 88 325 87 512
16257 1.8924096280415319 2.3653861254456459 2.5997873269512208 5 3 3 0.80308278664157406 12 595 15 467 45 473 75 339
16258 0.52312792274916242 3.039093628920436 2.8527615539131772 24 25 8 0.69215992951602556 45 237 75 409 12 234
5985 0.63197045837856047 2.2512827743452721 2.8822309531425336 78 91 60 0.99109869736907108 66 2397 59 3016
16260 2.7726413774288976 3.4941895445801996 0.87123332622479588 58 68 16 0.37492560501656114 12 292 15 408 45 274 75 450
16261 2.3490078265847201 2.8038714454679874 1.3480020391735887 57 68 34 0.32085380783542039 12 535 45 585 75 453
16272 3.5015106963870126 2.5461423741040776 3.2436455153128749 35 33 39 0.72320698335058553 12 405 45 432 75 620
16275 1.2172155816288626 3.1413119654747974 1.526816075585292 84 103 94 0.23883256457640401 12 608 75 700 45 602
6002 1.7421918174473139 3.3015028691145814 0.82442019346289885 79 77 46 1.5852897275217022 67 332 28 38 55 3033
16276 1.8739525663356218 3.0810333382106343 2.1210884700440724 49 62 50 2.1536983092140614 12 1814 91 552 75 811 76 207
16278 2.34644484361896 1.9212495487738577 1.8799110889634725 29 43 39 1.0166511137656149 12 992 45 729 75 863
6005 0.57294197523389301 2.882664963101579 2.7512386538037141 72 83 70 0.43779473137656882 68 155 84 114 28 48
16280 1.6077317874121575 2.4831114189201053 3.3826493131132529 63 73 49 0.56947620205532912 45 468 75 876 12 484
16281 2.2898461074796557 2.2216621202094693 2.0282047443343734 19 24 26 0.32088154982853812 15 744 75 882
6008 0.6153429516586153 2.7758998607316046 3.1602271617690945 24 24 19 1.3961587198149736 68 429 84 459 28 229 78 170
16282 3.7930359663884681 2.655506139490436 2.8527139507847723 66 74 20 0.81035812913891414 12 1597 15 559 45 900 75 885
6009 1.8227175095758634 1.711375454886769 2.4050239653637382 0 0 0 0.55614725827162004 68 524 84 207
16283 2.6981023626933713 2.5010973682653539 1.6093280460968113 24 31 41 0.062135049103016142 15 1543 75 888
6010 1.6901935824436944 2.4617509015644132 3.5118502220203243 100 119 107 0.94942838858763379 84 302 28 269 68 285 39 156
16284 2.1502606405596274 2.3510380244268889 2.697477113849104 40 28 27 0.14382601207731296 12 2106 45 1433 75 922
6111 2.1624933066247722 1.7226494390223699 2.0580892315735588 27 16 13 0.84481423030953484 59 229 69 134 95 69 20 116 71 90 80 135
16384 2.2031990503331969 2.4620060540143127 1.7794786050144915 92 62 47 1.3731634654773834 14 1 33 1
16285 3.6293599433523958 2.5587760306820244 3.159551847646056 33 27 14 1.9085419898746701 12 914 15 1175 75 968
6012 1.8483696365199258 2.9816898036767814 1.8954587712225375 54 62 29 0.873568208854822 84 681 28 357 68 1191
16286 1.897427780747744 2.5980080979150522 2.3282565603454164 8 11 11 1.4708369174848024 12 816 75 971 45 2190
6013 3.374072178217526 2.4137187283839885 3.3731050789494099 49 64 78 0.43534331409958221 77 292 28 370 78 315
16287 2.0841121281897683 1.9491551025606952 2.0112171109996058 161 166 145 0.62618207244887281 45 722 75 980 12 727
6014 3.061255632362025 2.369829728016112 3.4105085813263183 15 14 11 0.67790172693994954 84 349 28 375 68 334
16288 2.6075036436323349 2.5896745361469922 1.3812379471878065 50 61 37 0.34316436581273652 45 783 75 1002 12 842
6015 0.91160971764376753 3.2100972411342834 1.3231436560512628 48 47 57 1.1276411553105277 67 626 28 407 55 611
16289 2.0661758641970898 1.9558595746980856 2.006824241849996 69 50 35 0.18769693354561637 12 470 75 1015 45 462
6016 0.49454729475944947 2.9012074607499376 2.2024484393364809 239 248 241 0.50415071199485384 68 156 28 462 84 76
16290 3.8398387924044903 3.059284488516647 2.1683186894128692 23 25 30 1.1052406182233299 12 2434 15 3173 45 897 75 1093
6017 0.66267664219803468 2.8049869842168977 3.0080891066257016 76 74 26 2.0099252605556353 68 286 84 260 28 506
16291 3.7307999063232651 2.9556163079028153 2.3470051972505495 42 58 48 0.58525024764552369 12 2339 15 1201 45 2369 75 1094
6018 1.245540465033266 3.2764622911477779 1.0703052881015147 71 78 48 2.2688718832257595 67 1659 28 524 55 3028
6118 2.3119459434232903 3.4311863106949243 0.80588818456820266 51 44 35 1.2378406852101986 59 408 69 224 95 520 20 207 71 1200 56 921 49 1568 48 1954 70 290 70 1112 88 542 87 274
16391 2.4668743865306277 3.4758703124131114 0.91364996043463964 21 16 5 0.75444816040218377 14 117 33 91
16292 2.1010704581964963 1.6361874514530543 2.6636856735428629 77 99 129 0.2873223350567003 12 968 45 971 75 1120
16293 2.0316559684564339 1.7191314554393389 2.5930366105895497 128 124 88 0.35938497154899945 12 1445 45 936 75 1125
16294 2.2746117614100139 2.2896487025323089 2.8394377605650529 75 82 50 0.75401475212375157 12 1464 75 1135 45 1342
6021 0.65471403449304089 2.4120431700003211 3.2257336050280627 89 84 87 0.13259641014619461 68 1345 2 1519
16295 1.9784103371340656 2.0268361977100016 3.1193625288640296 21 24 30 0.3257456364704891 12 1430 45 930 75 1136
6022 0.93494070740997914 2.7180598301586558 3.18047932944856 34 40 22 1.4635601152229569 68 1861 84 2057 28 695
6122 2.2256899184361685 1.7595782434158096 1.9026259084116379 0 0 0 1.4704335795726444 59 520 69 242 20 367 71 131
16395 1.9540155222326325 2.133869312851723 3.2466633104313209 255 255 255 0.43645987666076913 14 261 33 278
16296 2.0801669724148293 1.8257117652629722 3.1832408075526755 82 79 78 0.41330808630061089 12 1309 15 1659 75 1158 45 1631
16297 2.0261864668078267 3.4925402119261491 0.79589007782523824 21 22 11 1.6133354346661792 12 1036 15 1390 45 1743 75 1187
6024 1.2854125661764326 3.0314675866750416 1.8404462280540981 45 57 47 0.42347577486579557 84 734 28 707 68 890
16298 1.3494750988101309 3.1136743961673314 1.5343159796912953 76 93 80 0.097295218568247174 12 1028 75 1253 45 1022
6025 1.1657042360846805 2.971791655244183 2.0160822726481271 53 67 59 1.5983415544977184 68 1302 28 731 84 1960
16299 1.0994909365553183 3.1468113038523855 1.5474741678761077 47 57 25 0.34348898387107502 12 2167 75 1281 45 1372
6026 1.3281626540500449 2.8973067581846128 1.9173896745227044 96 106 89 0.57922237919947106 55 481 28 801 67 1951
16301 0.75151127421429265 3.0262576406525392 2.0489569788048643 85 87 63 0.30529359482338148 45 1376 75 1325 12 2179
6028 2.0806283952167708 2.7210015959561997 2.1176922103690821 84 78 72 1.414287618716511 55 2243 28 936 67 2754
16302 2.6633635016723032 3.3362698185816151 0.93631667865455104 65 67 40 1.4464280157246139 45 1781 75 1345 12 3068
6029 1.2220705008191448 2.8476185740086057 2.4177945430067109 106 118 104 1.0863658909384342 84 2201 28 985 68 1981 82 1338 8 464
16304 2.0602577635280506 2.822954567374055 1.7164273029731181 205 195 155 0.30969309887802748 15 2144 45 1166 75 1362
6031 0.44686039810920564 2.8388123618845276 2.5566407415532799 92 74 63 1.9399692051957362 68 467 28 999 78 1689 1 1115
16305 2.694938669615349 3.39550704259256 0.88957767541558763 22 27 36 0.43898781254311942 12 1176 45 1283 75 1380
6032 3.7011711208171953 2.9090130737926745 2.351100204909458 42 52 42 1.7916273407299488 84 1287 28 1071
16306 3.5621504148403895 2.4315037457942577 3.2309654675769219 26 27 29 2.018610453747216 12 2363 45 2391 75 1406
6033 1.2955780618246007 2.8612843469091671 2.4450003093453687 62 87 78 1.2559486199360077 55 1855 28 1137 67 2746
16307 0.77301339975353689 2.4668105025543019 2.9899452256638015 58 67 32 2.3774536754778244 45 1234 75 1438 12 666
16309 2.5955574950255906 2.4709613121098499 1.5493935585565475 47 42 43 0.33515689355837236 12 1871 45 2055 75 1505
6036 1.985997695040852 3.3383951551286746 0.79097939707884235 37 37 47 0.2278567092859721 67 4684 28 1236 77 1668
16310 1.840468771750817 2.0796579300199092 2.838900629855607 194 186 143 2.549515523760693 45 1424 75 1506 12 1879
6037 3.4439683686462312 2.5304081230742956 2.9059287719830347 138 158 135 0.52138136233827459 84 2459 28 1252 68 2306 82 2288
16311 3.5127679098115348 3.7109860836723789 1.2217094199481786 27 20 16 1.4213400811477641 12 2468 75 1512
6038 3.4329807234999703 2.4311773431260102 3.3298952054296285 21 26 36 0.34544930209603847 84 1426 28 1290 78 1022
16312 2.4495973818883612 2.8768136776774051 2.1362308917091086 26 18 17 2.218017860883958 45 1994 75 1529 12 1993
6039 3.3192708171990821 2.4243771794274029 3.3258256057220952 41 53 66 0.27836045948775473 84 2428 28 1292 78 1713
16313 2.0103871615797515 2.3484683435094134 2.6673261700472546 40 27 26 0.6412092089790925 12 2732 45 2003 75 1539
6040 3.4189250915924516 2.3394048902723963 2.9394085689178304 19 24 34 0.8403711654397007 55 729 28 1295 67 725
16314 1.9320479034722382 2.1159286310084449 3.0068059009349275 21 14 17 0.22683719850620263 12 2018 45 1532 75 1571
6041 4.1900127199910866 3.5892874024401538 9.82755649269283 93 109 103 0.067019714443008332 84 2784 28 1324
16315 2.2019420269890038 2.4524327852076908 2.6357556869928742 111 61 37 0.2444749352220629 12 775 45 705 75 1603
6042 1.7592498736627011 2.5377642258312596 3.484996354444823 80 86 64 0.24843829317209207 84 1547 28 1331 68 1454
16316 2.855788318025227 3.315707208251633 1.2039076548523704 53 64 42 0.60687958522100804 12 1731 45 2162 75 1624
6043 1.711562454161933 2.5411861555366886 3.4835021966018278 68 69 56 1.1918286178939428 68 737 84 806 28 1332 39 735
16317 1.9681234221049844 2.3559911777321245 2.1515487137885345 51 44 43 2.1558155229029925 45 885 75 1639 12 795
16318 1.8907438527441827 2.4398811735208339 2.4272803106155538 69 50 40 0.18658754901733918 12 567 45 568 75 1721
6045 2.6089674000649707 2.7768525661377588 0.933338599527337 46 55 55 0.59672971252331097 68 1246 28 1549
16319 1.8456352170369366 2.4691187196715187 2.5619076290913707 40 27 17 0.043396940181944087 12 1920 45 2080 75 1726
6046 2.5906794692092325 2.6787586272987172 1.0387996429020916 46 55 56 0.30900089989735036 84 825 28 1577
16320 2.0924846991060013 1.9287981022164933 1.9896376672545468 39 31 29 0.52712986648702698 12 1904 45 1990 75 1728
16321 0.82345357607050085 3.1787533140259785 1.372393616247445 27 27 28 2.5009862604145221 12 3569 75 1753
6048 2.2260165539529968 2.6359868446476713 1.7378551797169477 255 255 255 0.15438161805183254 68 740 28 1774 84 1559
16322 3.4807881310442994 2.3628809515769928 3.3811311583100325 39 34 47 2.5094664003280029 12 2366 75 1756 45 2393
16323 3.1145923338292572 2.4947375592889318 3.6674552852629039 65 74 32 1.2330852007418216 45 1584 75 1773 12 2368
16324 3.0293680472407836 2.5012244036030453 3.7349827268101223 31 32 38 3.1498621411658525 12 1347 75 1845
6051 2.977093929868313 3.2618222322303509 1.5503596219221774 110 127 121 1.5682994666146031 68 2341 28 2133 82 743 78 1880
16325 2.1941895425393585 1.8483538900271956 3.1606203594328934 57 68 30 2.3856197603989435 15 1720 45 975 75 1855
6052 2.3928920878230171 3.3594091164733606 1.3038313381810942 15 9 11 0.72890067671571623 67 1707 28 2233 55 1606
16326 2.0738473408897171 1.6973622621291256 2.652155786453255 57 65 62 0.28511692038835013 12 1336 45 1596 75 1880
6053 2.670751884639575 3.4620607080404797 1.5587850154625569 45 49 31 3.1863445891761515 28 2240 55 4118
16327 1.8380006528311226 1.7889213770437709 3.2706396077690627 23 28 35 1.3781485622776399 12 1332 15 1275 45 1599 75 1897
16328 3.0229410142055615 2.8966026855980074 2.3347880784245181 83 102 93 0.13869054756157517 12 2284 45 1350 75 1972
6055 3.1211728304547091 2.3809164412464372 3.378328973659571 31 38 49 0.42967718743579825 84 2437 28 2527 68 2289 78 1618
16329 1.3114755905369289 3.2898304897269157 1.4014734654958758 63 79 67 0.54538287230841787 12 1142 45 1148 75 2030
6056 2.4562962303613296 2.1038931309974318 2.2154973444659687 18 21 31 0.92814792586806449 68 942 84 522 28 2553
16330 1.4397823741065399 2.9674595002605662 1.8118622004948759 42 55 35 0.17416850550007371 45 1049 75 2087 12 1500
16331 2.2178667708462552 2.39867670875786 1.43484279214605 251 250 235 1.7384088438833047 15 3458 45 2550 75 2106 12 1701
6058 1.6373798855136965 2.3876263147918366 3.8272882725019617 70 84 108 0.15786157735362971 68 2272 28 2654 84 2429
16332 2.6843754763193357 3.4243835390477404 0.87573842757910614 55 66 44 0.40361073046643031 12 1168 45 1274 75 2265
6059 3.5519910486366473 2.5867001087789188 2.827751836975378 107 127 125 0.7959289141637117 55 3536 28 2819 78 2736
16333 0.80010987934024358 2.9528775870172348 3.4619087411247134 52 62 26 1.5259495621476138 45 2812 75 2286 12 2833
6060 3.4487815790002583 2.582091084672423 2.8754150531060856 19 23 35 1.6545546659153114 84 1541 28 2827 68 1462
16334 1.8903841544860511 3.1573295787485196 1.851803414069517 47 60 21 1.2741762335345224 45 1262 75 2304 12 1714
6061 2.4798170937444888 2.0537936427062706 2.1491408866785 29 23 21 0.97363742046673141 84 1965 28 2869 68 1838
16335 2.295167221525336 2.7376908316282034 1.3895661221159179 39 47 59 0.60170669894123563 45 587 75 2311 12 585
6062 2.4147824533246185 1.7385155486471542 2.1173201986771866 30 23 21 0.18880706443590375 68 2164 84 1880 28 2909
16336 2.1885692889589841 2.6511937707429891 1.5540767745386166 63 68 81 1.2367167715725103 12 3026 75 2314 45 3296
6063 1.8470616865435505 1.6001848066610969 2.7599298346632892 99 83 68 1.0709588061313398 55 3427 28 2913 18 3219
16338 2.219861852416408 2.6812348388908571 1.5904728066461811 36 25 24 1.7663264608123159 45 1194 75 2328 12 1199
6065 1.6787618537412847 2.4562167647286461 3.5198757255203836 115 138 127 0.37957896455473644 84 2471 28 2992 68 2312
16339 2.0991529331277645 2.8339928518090547 1.6207034601268491 160 155 123 2.5646276677287418 45 1159 75 2349 12 1206
6066 1.4931158132498339 2.4921111826446176 3.5201421575045897 57 66 58 0.086561058902237253 68 2231 84 2461 28 3020
16340 1.8588635882453681 2.2937444465648116 2.7772052716361304 212 201 157 0.31375786292552377 12 2670 45 3261 75 2572
6067 2.6911649445682468 3.3044953856298971 0.8158673050049926 71 66 65 0.7727110487046458 68 2453 28 3139
16341 2.6205409907804311 2.4664128797372293 1.551903864797241 46 39 37 0.3824530168811559 12 2680 15 3625 45 2749 75 2582
6068 0.61442346626180688 2.7956065098016185 2.949380557514917 25 23 15 0.76040685344593217 68 2020 84 1325 28 3261
16342 2.2145606932481279 1.9261706915102665 1.9355773637868168 118 129 141 0.87121860998641176 45 2681 75 2591 12 2648
6069 2.2133343470150204 2.6403780974723925 1.7442459511459623 29 23 18 0.10826411861200402 68 2262 28 3339
16343 1.8136820376609821 2.1057342699386918 3.0249727352917164 116 94 57 0.37067428265206592 12 1891 45 1441 75 2658
6070 2.4150585540527683 2.94220022067661 1.1096554375831482 74 81 82 0.52519891433511812 68 884 28 3424
16344 2.3249886050410686 1.8525785648423032 1.9103507051566404 64 51 46 0.40148867492562229 12 1452 45 1494 75 2669
6071 2.9463082386840753 3.2450183500894578 1.5460186876892463 135 155 142 0.6276137565070965 84 2502 28 3505 78 3385
16345 1.8236569252633701 2.0658065206172949 3.0947359309815003 18 20 21 0.15542743803909595 12 2275 15 3111 45 2293 75 2684
16346 2.2610048596080712 2.2298388578184745 1.4836126672857182 164 167 144 0.44473382161693853 12 2473 45 2482 75 2725
6073 2.9962935309544299 3.2583675312233611 0.93434423931406518 35 25 18 0.78532323752399114 84 2713 28 3743
16347 2.5657422091699837 2.6972324446356546 1.2832732800420283 45 60 47 0.50742103354782142 45 2611 75 2738 12 1710
6074 2.9889955951223226 3.2435314639957022 0.91197063441891568 90 85 80 2.1438513253656488 68 2522 28 3748
16348 3.4530723765567659 2.9028241829810768 2.3303008148154003 43 54 21 0.28399242449010514 12 1313 45 2464 75 2895
16349 2.4619711857853841 1.954507128241755 2.8982395034960735 45 56 53 1.125792487181646 12 2427 75 2932 45 3562
6076 1.1889309558343197 3.2215448109971301 1.0458514007070818 77 81 39 1.5383520796747487 84 1125 28 4053
16350 1.8697860146936538 1.7985480327931331 3.2615054709913003 35 29 28 0.73952115375185989 12 993 45 986 75 3090
16352 3.1805515617530196 2.9126443528918537 2.3013694081033047 78 95 78 0.38610844331927852 12 2213 45 2224 75 3166
6079 2.2173772941722012 3.0466706561507189 1.2027264265002364 58 62 60 1.0656183721329668 18 3969 77 3070 55 2541 28 2189 68 1067 2 860 84 1215 39 1157 11 955 44 1601 65 1658 32 801 13 863 1 789 92 1799
16355 2.2310739261255446 1.8704963846524281 3.0154086397010955 44 55 25 1.390394810918137 15 1286 45 2428 75 3199
16356 2.2069823338161267 3.4481439245752941 0.71514541920387342 85 63 61 0.17124858542335958 45 1017 75 3408
6083 3.1369336283297176 3.2313797551395074 1.0630550189256174 99 95 89 1.1887738355067023 84 2503 28 2236
16357 2.2695745859195555 3.3322269015269903 0.70753015225215099 29 23 17 1.2977889870317316 12 1494 45 2869 75 3413 45 2095
6084 2.4446839069932014 2.7336506779758221 0.91586901260329001 84 96 106 3.0824598399386316 84 1991 28 3563
16358 0.53157278526317597 3.0455897901630626 2.334152961659846 22 28 37 0.47560204285402746 12 3163 75 3590 45 3171
16359 2.7273846223268445 3.462377097008158 0.87299975862753532 21 26 32 0.45930141461869139 12 1781 45 916 75 3630
16360 2.2667100445398844 2.8894706425251346 1.395217356998993 104 73 51 0.85135861962522164 12 3297 45 1818 75 3647
6087 2.2998464449263456 2.2533152890286319 1.4742456194839362 4 4 5 2.0006968357795438 59 12 69 11 95 9 20 10 80 8
16361 1.9639488258597129 2.8132034780951898 2.0674662314986625 1 2 3 1.9380395186414532 12 2953 45 3046 75 3719
6088 3.2534427462880298 2.4102730380636634 3.5972357381070306 20 27 39 1.7031101003114018 59 16 69 19 95 18
16362 2.1235534108320757 2.4087470874811245 1.6355434083028049 45 32 28 0.766129347895247 45 554 75 3738 12 599
16363 2.0568585688304539 2.7720188802858488 1.7280996367493986 30 27 30 1.8377362173045115 12 2972 75 3760 45 2971
6090 2.2146284764986279 2.7414028416460394 1.0836718964096421 17 19 25 1.5823349300498446 59 33 69 24 95 34 71 36 80 30
16364 2.0747142766395816 2.5947178496749101 1.6814814414632999 62 48 41 0.29219741397500543 45 2101 75 3785 12 1683
6091 2.4828589186570849 3.4230332277224678 0.96404126452637695 29 30 36 0.81381479771611731 59 30 69 28 95 30 20 33 71 30
16365 2.4565845258329606 3.4123540998144595 0.72868807005708391 80 59 58 0.039143916639820871 45 1883 75 3826
6092 2.4007684797685531 3.3846141889345915 0.82448415959264498 130 96 76 1.4710079940302156 59 24 69 29 95 31 20 26 71 31 80 29 88 21 87 24
16366 2.5624890076259947 3.6009341034432598 0.78458958638912302 25 21 18 1.6897911821189149 45 2764 75 3865
16367 1.7602822150934909 2.0451582869796492 3.717788643949437 45 34 44 1.736867618892683 12 2203 75 3978
6094 2.133493469576329 1.8404838962754098 1.9489298635621004 0 0 0 1.4104380171203443 59 38 69 42 95 36 20 40
16368 1.9495136842900604 3.1316895536152773 1.9692279582390426 30 24 17 0.72172547673548026 45 1288 75 3981 12 1182
6095 2.1794288556737813 2.8714086922419071 0.9258839879551064 107 62 47 2.1239610891999035 59 32 69 45 80 54 49 19 48 26 6 11
16369 1.8644546576398755 2.3576185945398094 2.676823738191823 208 197 154 0.260754979019928 12 2493 45 2702 75 3998
16370 1.4475345990751547 2.4500154863540984 3.7968261277862347 30 26 12 0.16457193409297302 12 2669 75 4033 45 2699
6097 2.1072433290495263 2.7444731641139479 1.5418534384834672 27 34 34 0.68296043849807897 83 106 69 52 95 52 71 59
16371 1.9521352575260986 2.758132538813443 1.9989249612822251 33 28 27 2.0876541783624698 45 2121 75 2317 51 2499 90 1601 22 2697 100 2985
16372 2.0239359998206505 2.3041257417989787 2.8243118744447968 48 31 25 2.5438850160127973 91 2748 12 1885 45 2675 75 2674 51 1902 22 1700 4 2409 16 1374 91 1658 100 1008 12 1875 45 1477 45 2628
6099 2.4252512863207021 3.4602603498540705 0.97991846595996712 30 30 33 0.60454267198974143 59 79 69 77 80 81
16373 2.3039713462214175 2.6703718994933614 1.3897526461623657 255 255 254 0.86463763635278457 45 261 15 386 75 455 12 253 37 150 76 305 25 252 5 312
6100 2.2248486719625444 3.0011649974046675 1.2036144778533902 13 18 22 1.6378121678690551 59 55 69 79 95 51
16374 3.7192271662055281 2.4886086280167397 2.9722596094550884 66 34 24 2.4178121323108606 15 1964 75 1467 9 862 36 1878 16 408
6101 2.0118176607590033 2.4048526938826642 1.3704956250754641 20 9 4 1.265207597920543 59 150 69 83 95 133 20 355 80 138
16375 3.7353623204594846 3.2132922785447549 1.823699029897567 13 16 19 1.9537559230045285 45 1597 75 3184 12 1327 47 1549 51 1632 22 2055 91 1617 12 2245
6102 2.427206587072289 2.6617772411691623 1.1345873675924114 16 5 3 0.54807302525557533 69 85 95 82 20 98 71 84 80 88 6 108
16376 2.1211087106146334 2.7074943149181352 1.6135216577416502 28 19 18 2.000936932479227 12 26 45 24 75 49
6103 2.4595900992744819 2.5958082680877466 1.1164383130625626 74 53 33 0.54926219816516308 59 126 69 86 95 85 20 94 71 88 80 89
16377 3.7295238776268591 4.1834007277189 1.5308722732204822 19 19 14 2.679571242501265 12 826 75 923
16378 1.2117433143039933 3.3927313739934002 1.804732304043684 45 55 40 1.0704635902329089 15 2474 75 1320
6105 1.9934338961151559 2.5166694434256618 3.2023493718481428 35 45 54 0.47369035040623136 59 106 69 108 95 101 20 109
16379 2.3515112793831205 2.7436138625765993 1.166672243564401 39 48 19 2.2466167443263871 12 514 45 578 75 1353
6106 2.3237623908364005 2.6446792476767267 0.98984112345716602 104 91 59 1.4097983501556259 59 154 69 109 95 107 20 92 71 155 80 133 56 104 49 100
16381 2.6130089676028314 3.6027981546777252 0.89003150429236499 0 0 0 1.2736882585285418 45 541 91 1054 12 668
6108 2.3326395539229412 2.6163302506343245 2.3066974682864512 24 22 25 1.2951714145075977 59 193 69 114 95 123 20 182 71 105 80 38
16382 3.1897111748336915 2.6480384591212056 1.0503329378519004 68 48 51 2.8174450150243393 12 2599 75 2676
6109 2.3341916607819826 2.6022366256596823 2.3696957111808818 20 21 28 0.47586267128315252 59 205 69 117 95 198 20 212 71 144
16383 2.3397193584116756 1.9873336864550859 2.7987703771306967 39 52 23 1.4191904172380911 12 2384 75 3178
16385 2.5711064867706472 2.1471389321012211 3.8384501999144489 21 21 11 2.0444714743413401 14 66 33 41
6112 2.2212226588124953 2.3091767281259474 1.4443008789677201 45 49 53 1.5123591417833773 59 156 69 136 95 129 20 147 71 228 80 87 49 103 6 194
16387 3.7921605280591382 2.8503913671268526 2.2672208465631067 19 20 12 0.6531065411426773 14 26 33 59
16388 3.8117351906109609 3.0730735346929126 2.1197867311354441 28 22 16 0.56737874338998684 14 25 33 61
16389 2.5359766311682348 2.9974669966623173 0.90634007222174895 31 27 26 0.60251849999963847 34 102 33 63
6116 1.8782443565092199 2.1313557389496238 2.0575609172589182 43 48 52 1.5047874031726034 59 343 69 210 95 140
16390 2.2461301717524966 3.5143352588552932 0.86517215073255227 27 24 9 0.067375436388184329 14 55 33 65
6117 2.297630600164366 2.7143128004421535 2.0078849902981659 24 14 10 1.0049878896391113 59 194 69 222 95 379 20 203
16392 0.84049046591866106 2.9027068362509989 1.5321329701617055 62 72 26 0.23228950623491179 99 154 33 142
6119 2.3432635306557899 2.5963022190592739 2.432172865147237 33 33 39 0.61130677802116284 59 468 69 230 95 200 20 312
16393 0.81195423775693654 2.8077912825905473 1.4874672719915554 31 29 24 0.2557583369355757 99 156 33 143
6120 2.3978440397775032 2.3142015359783716 1.5118010896652667 254 253 231 0.13761250882422049 59 318 69 236 71 230
16394 3.1523634367260498 2.4002591154720703 3.1685777370875083 107 126 115 0.83165847687252104 14 183 34 265 33 192
6121 2.0570337686826581 1.7812903438752394 2.0418224319591753 23 17 14 1.798427404724146 69 237 20 222 71 229 88 192 87 179
16396 1.1369652079452788 2.9490301320047219 2.2036318623601625 25 41 38 0.86525147257621582 14 678 34 630 33 348
6123 2.1471686953609441 2.4675752435350384 2.1860492517278032 31 22 19 1.1344122567076433 59 199 69 250 95 381 20 378 71 482
16397 1.977493109790404 2.0578995062677383 3.0315806480371248 255 255 248 0.47716215929415429 14 482 33 391
6124 2.3356615226335418 2.6574441956871384 0.9310461525505318 7 7 9 1.8363659962135368 69 267 71 221 59 351 80 2513 48 123 99 121 49 443 85 14
16398 3.1072084737931465 2.300512737442161 3.3129036158419964 50 60 51 0.12673582238518133 14 342 33 405
6125 1.980302615069029 2.4627122599514926 3.2860776052408229 36 46 53 1.0452918158799713 59 142 69 325 95 159 20 181 71 328 80 525 56 687 49 1040 48 4033
16399 3.4116417340108733 3.4299668799934988 1.4901321660421105 71 75 28 1.5932045462869031 14 397 33 473
6126 2.2010246586378321 2.1434290734752768 1.4566071601852222 205 203 170 0.51338131967414602 59 549 69 340 95 502 20 599 71 593 80 385
16401 1.895275617090135 2.1362878048380098 3.4392876601439828 48 58 45 2.5199411258394537 34 447 99 277 33 529
6128 2.3225782128846566 2.6997511990865686 1.4586650425264156 217 209 177 1.445081852021141 59 250 69 361 95 225 20 137 71 102 80 245
16402 1.9251510463135655 2.3111005045964887 1.4749323646300683 60 73 53 1.653307347733429 14 1194 33 611
6129 2.1289559939416329 2.3515532137935478 1.4698545620018457 254 252 239 0.87696656537466999 59 570 69 372 95 409 20 357 71 179 80 374 56 198 38 172 6 330 34 372 49 81 99 262 48 237 35 361 85 365 70 259 89 156 42 162 3 170 88 130 87 187 33 665
16404 2.0860930790151073 2.3783814155652561 1.4628601972809414 203 196 184 0.48704218836939761 14 1175 33 662
6131 1.904679079573752 2.339034350198463 2.9793970396155105 56 28 23 1.0066467546707727 59 405 69 430 95 301 20 278 71 309 80 293 48 823 99 702
16405 1.2305114190027442 3.2677306635456365 1.1547653724003435 33 27 14 0.10452736251961361 14 442 33 667
6132 1.9977304661205444 3.0743442783154098 2.1427374204519145 66 72 32 0.86092434283368846 69 464 95 286 20 177
16406 3.1975220718651842 2.4141124981265065 3.160234698576879 45 57 28 1.144945616353171 14 720 34 950 33 713
6133 1.8536652819857837 2.4520733719432961 2.8974222164850318 2 2 3 0.31172625695712886 59 400 69 466 71 433
16407 1.0513888312084241 2.2475882235056939 1.2311315770834228 29 31 35 1.1808665363031137 14 685 33 748
6134 2.3465482515024316 2.725483649434409 1.9645538512129292 100 91 73 1.0380726977737218 59 622 69 470 95 1067
16409 2.3039844416247153 3.448597865164543 0.85373444131951692 106 60 45 0.3027276597616817 14 530 33 1119
6136 1.9619433895243754 2.1349063604428982 2.1068733687886603 253 252 233 0.59184964380732963 59 346 69 487 95 221 20 236 71 246 80 202 49 221 34 175 3 145 42 70
16410 2.3032774682785262 3.4210243823633135 0.82841947583995701 46 31 21 0.45561864791423806 14 541 33 1120
6137 1.9641760946037927 2.0951207656226125 3.0418265282247861 55 68 71 0.59848000135970492 59 433 69 492
16412 3.9481111092306658 3.449368874278091 3.7519333215725035 24 20 17 2.0608777445014193 14 998 33 1163
6139 2.5019689256240945 2.6301998555700616 0.97970940771264969 255 255 255 0.81687928962946099 59 744 69 594 95 514 20 605 71 592 80 669 56 728 49 915 6 826 38 902 34 937 99 1107 48 1150 35 1809 85 1979 3 387
16413 0.67781731690337499 3.0557152022247309 2.2292682718133543 36 51 39 0.49196928736681123 34 2112 33 1190
6140 2.2568185405283048 2.2312792467598581 1.4128341067633283 26 18 15 1.6864748549044588 59 320 69 595 95 506 20 601 71 591 6 1346 49 2187 56 2209 70 454 42 675 88 414 87 626
16414 3.844950363366157 2.8363878511777911 2.2467103337507845 28 22 18 1.9962601546865204 14 1102 33 1276
6141 2.1986127104827569 2.1602752048218754 1.410849742969309 143 146 127 0.36095159000943738 59 1723 69 598 20 2204
16415 1.2915687122763768 3.6791041921365082 0.95610315600669737 35 31 44 3.0221468865413086 99 2858 33 1283
6142 2.1898769861434366 2.1685875345389269 1.3563168957733176 26 26 25 0.15814717596258884 59 548 69 600 95 979 20 1017 71 1164 70 1622
16416 1.6323195195805944 2.1609220661700999 2.9232549612668994 41 51 36 1.8975199885103931 14 858 33 1333
6143 2.2345572435080103 2.1396893517804334 1.4295189728498263 37 30 24 0.32616601152737934 59 546 69 601 95 500 20 596 71 596 80 676 56 473 49 465 6 450 38 312 34 383 99 426 48 356 35 237 85 268 70 719 42 373 89 381 3 284
16417 2.6822659188163374 2.5103922013514999 3.4814069363820348 70 82 62 0.022118684401717281 14 2236 33 1352
6144 2.6167520843544274 2.2827844817882945 1.5391840730114943 238 227 200 0.49143753395279888 59 1036 69 602 95 503 20 971 71 585 80 670 56 117 49 467 6 146 38 440 34 479 99 1076 48 1091 35 1117 85 1175 89 351 42 262 3 394 14 2481 33 1268
16418 2.8275154841672738 2.4622847435278552 3.1615789730863182 40 52 47 0.60756394048632789 14 2097 34 557 33 1619
6145 2.6591740126741517 2.2658712525916753 1.5577802132377838 0 0 0 1.5588857809771604 59 547 69 604 80 226
