# 3D point list with one line of data per point:
#   POINT3D_ID, X, Y, Z, R, G, B, ERROR, TRACK[] as (IMAGE_ID, POINT2D_IDX)
# Number of points: 363, mean track length: 4.5539370909858556
1642 -2.7287123759454892 2.9305273047294333 15.138594646909395 223 158 36 0.0070182708894015611 6 1143 65 1264
534 0.29608728111434035 0.29816424892329546 14.683563513182504 192 197 218 0.71608030183323257 69 334 30 859 38 887
1643 -0.3585281444131912 1.3508124202136835 15.26072552608511 182 143 51 1.7017215081974562 69 1049 65 1266
535 0.094801075538632928 1.2051998707810145 14.221802597473493 170 161 171 0.1645582657758943 69 224 76 762
1644 1.3998403300920248 3.3209771488697282 15.718454306972506 168 158 130 1.7187111907791806 69 1685 65 1274 97 2058
5250 -2.2812174217327579 1.0001980103336037 15.426671051144924 234 188 63 0.27248151270678778 91 2156 85 2279 38 1824 99 2599
1645 0.51122483956420217 1.1299304415602831 15.995119571950543 176 179 199 0.40264178101019266 69 1555 65 1280
1646 -0.95518214558061543 1.0956796640390198 15.639528094761086 251 210 60 0.068546180708164636 69 1374 65 1282
538 1.2772533163591946 -0.016202757481393892 15.179305196698776 240 170 39 1.8268697993449228 8 455 30 882 96 2200 92 134 97 2340 51 2317
1647 -3.0021305956266269 1.3597554925925279 13.477162447484721 117 68 7 3.340379733400884 38 1842 65 1292
539 1.6351075714013943 0.52763392502673834 16.021115336552946 210 204 219 0.52823710724469131 69 485 8 458 6 453 92 641 65 274
1648 -4.754857415350501 0.90197280061582064 12.340783521128463 2 0 0 2.23617666695763 6 1440 65 1295
540 -2.6241593139647308 1.7229681691127603 15.090051242144346 181 118 21 0.82515735854817895 69 839 8 461 92 211 6 261
1649 -2.5838512256504798 1.7429597709673397 14.886706177986969 168 101 15 1.1479305111484917 6 999 65 1305
1650 -3.562680680349855 1.6343509025166769 14.537068572443209 134 127 124 0.5267970748709041 6 939 65 1306
1651 2.0627101014833311 1.9681614735436348 15.678343338008474 0 0 0 3.8095510444948912 8 828 92 549
1652 -3.5966720379736272 1.4015815181305664 14.799451818625485 154 112 25 0.74963580724851908 6 1722 65 1343
1653 -1.1913659936724332 3.8167114209360697 14.276823346439743 3 0 0 1.3685480851828054 92 399 65 1351
1655 -5.1287100377734287 -0.74804330281807652 14.615316694545893 254 175 33 0.0077478914873997783 8 1345 65 1365
1657 0.70607736728029991 3.9858836164160922 16.456728031626575 17 16 14 0.69402109693773151 38 2165 65 1386
1658 -2.2067501183716258 3.0376014756969729 14.310075563827043 151 156 175 1.8133020296666487 6 1760 97 1456 96 1487 19 2561 42 1515
1660 -0.3786080821436969 4.120235333708564 15.803227515308727 66 51 13 0.25574500090046737 38 264 65 1408
1661 -0.10914718078212413 4.0395423538105408 15.947765836154579 17 16 12 0.35008410349199659 38 1759 65 1413
1662 -4.6172923633608498 -0.39547936383358584 14.806658481243005 254 197 37 0.25632005700569682 6 1814 65 1425
1663 0.071032597100343015 -0.33169939938525622 16.259501739827488 254 242 65 1.0700297794616787 96 1176 97 525 19 2379 76 481
1664 -4.7402614666336929 -0.52530469950187819 14.634039473988681 254 252 62 1.6496590850913129 6 1142 65 1442
1665 -4.6867847679757695 -0.29130106027496527 14.821370701617283 254 180 23 0.05006782536000709 6 1258 65 1448
1666 -2.8585826279465079 -0.27723733800320455 13.754863196551716 24 22 21 0.19169611584617491 6 1328 65 1453
1667 -4.5120026138190203 -0.31733068463872233 14.648782967043527 255 194 36 0.26862067290081021 6 1104 65 1479
1668 -0.70860410841025379 -0.13895042209040284 16.508210725275813 180 114 22 2.4953686393555308 6 438 69 1402 65 1480
1669 -4.5266685178524844 -1.0558381907321759 14.720218210790577 177 87 9 0.44846478270089285 6 730 65 1517
1670 -4.3654946346053576 -0.60341980905291448 14.681422851047923 254 251 63 0.50890862106708856 6 1346 65 1526
1671 -0.7053149736190254 -0.47917506687193423 15.965753094573445 224 156 34 0.0018964036444885811 92 1338 65 1536
1672 -4.9851915751853797 -0.79080854949522794 14.699420656396644 245 137 21 0.015012881293213983 69 1664 65 1543
1673 -4.9662309413645414 -0.73766370690061989 14.812122228973356 247 146 21 1.7089579608612464 6 1408 69 1329 65 1548
2097 2.4757585835003368 -2.2906753630764736 15.215991646065993 125 101 37 1.1743672743556142 30 383 38 356 97 338 96 386 19 642 42 694 55 547
2098 3.3986380972285692 -2.4070007935929931 14.523742538847157 145 127 42 0.72713239757040815 30 562 38 617 97 339 96 387 19 666 42 692 51 602 91 530 85 2017
2099 3.3134338497855036 -2.4424896770859226 14.722462363404532 109 81 12 0.66694187867603838 30 561 38 616 97 341 96 675 19 675 42 691 51 1097 91 1000 99 1707 85 2020
2101 3.019599620321241 -1.8720119271387139 15.0255950463769 118 107 35 0.64855806809241223 30 569 38 590 97 343 96 379 19 467 42 862 51 595 91 1087
2102 1.5017761068028597 -2.7223059539894221 16.734966597148713 0 0 2 0.28478342463230766 30 226 38 206 97 345 96 393 19 657
2103 3.1359343038043579 -2.6435938270874044 15.147956937490294 141 127 48 0.28450318774783534 38 613 97 346 96 391 30 558 19 661 42 685 51 569
2104 2.2842330715061019 -3.8935354417322938 18.391607574748228 150 131 47 2.2774244922936138 30 201 97 353
2105 1.965670400575352 -3.8014778574612644 17.62128793044819 151 129 46 1.4249740021829784 30 556 38 512 97 354 96 210 85 161 99 126 91 518
2106 -2.197171558297526 -0.99228473147078478 15.437500360507444 220 182 39 1.3134849345725346 30 515 97 356 96 430 42 878 42 2513 30 2036 51 1226 91 1756 55 1345
2107 -1.3542961890970262 -0.51074998384024461 14.376951860446606 163 117 23 1.1836168428348519 30 316 97 357 38 1036 96 416 19 261 42 241 51 356 85 464 91 108 99 377
2108 1.0754900401651299 -0.76582753484851185 17.234731489974028 0 0 5 0.29563846883657646 30 188 38 182 97 361 96 428 19 453 42 761
2109 0.96853604674668015 -0.83744219525303554 17.11095996194106 127 110 30 0.54971630342920108 30 308 97 363 19 842 42 875 51 357 91 309
2111 -2.0360591794600942 -0.971921461522259 15.355413570784211 248 228 74 1.5491517980258043 30 1111 97 368 96 233 19 270 42 169 51 1225 76 2191 51 520
2112 -1.9197685911301412 -1.0336960362825924 15.447254096339496 0 0 0 1.138494349287569 30 1108 97 370 96 573 19 455 42 711 51 1228
2113 2.7400847086111746 -1.1393029529715504 15.732347479296903 94 72 15 1.3023632940657264 38 389 19 802 51 349 91 177 85 153 99 145
2114 2.6638327497192669 -1.2934687133445801 15.694463679027137 5 5 8 0.81817035153778084 30 170 38 225 97 374 96 374 19 282 51 240 91 181 85 299 99 185
2115 4.1579688051613308 -1.5854373737235543 15.030524481970374 96 73 15 1.2740630317709913 30 490 38 230 97 376 96 468 19 1074 42 319 51 365 91 320 85 467 99 547 76 509
2116 0.68650347968174508 -1.6307751282664784 16.987239564679705 23 24 28 0.73837053937029562 30 369 38 394 97 378 96 377 19 766 42 864 51 819 91 327 55 380 76 322
2117 3.160916777576726 -1.7734497507727904 14.770683824839026 127 114 39 0.43985941082653129 30 570 38 591 97 380 96 378 19 463 42 769 51 593
2118 0.74407093369243527 -1.8126296749461017 16.523239758080763 21 24 35 0.24941667280008264 30 372 38 396 97 381 96 382 19 470 42 902 51 332 91 231 99 250
2119 0.36134335579403715 2.5494291087478125 15.049633640124622 8 6 6 0.81801632408844216 30 400 97 382 19 296 42 349
2120 3.5069953159338971 3.2657849975951994 17.150498463235959 214 198 161 1.630133271628093 38 422 97 386 30 304 96 259 19 298 42 414
2121 3.8071653855772749 3.2052328629382125 17.252296533028261 212 195 159 1.5925897015577581 38 476 97 389 30 392 96 300 19 303 42 424
2122 4.0260995664145698 3.0960957461058229 17.144927434108126 214 199 162 1.0382382173645754 97 393 96 304 19 308 42 431 51 1265
2124 4.6693691623925542 2.980559448012031 17.439456247655187 206 193 157 0.55675407661712784 30 778 97 400 38 690 96 458 19 367 42 389 51 518
2125 4.206229909054894 2.9529865568489875 17.590681662150573 222 206 169 0.53090954636832488 30 666 38 793 97 403 96 462 19 375 42 394 51 376 76 1028
2126 4.978987228747517 2.9079580532489877 17.530689122440492 207 189 153 0.65115053655439803 30 789 97 405 96 463 19 374 42 395 51 516
2129 -1.2202048895258608 1.1563299995261906 13.921754800527596 55 36 3 2.421958340251388 6 590 69 1127 97 411
2130 0.58211525719352397 -2.0923059363972025 16.731856481353603 108 92 24 1.9065927398702243 30 380 97 412 96 241 19 259 42 286 91 372 85 705 55 328
2131 -2.0459148152634219 3.801840614112443 14.702823699598451 0 0 1 0.76551990107529211 30 250 38 431 97 413 96 272 19 316 51 271 91 257 55 344
2132 -0.35024410439867809 3.4080330687384492 15.637036547056448 2 0 0 2.1331074659794371 97 420 96 489 8 1549 19 322 51 1390 91 1255 65 602 99 768
2134 0.20157482058804935 3.2652837425019734 15.788107375834711 63 53 43 1.2691382934233548 65 1331 85 95 97 426
2135 4.0570504665549931 2.5131011678271351 18.86662794082892 210 195 157 1.287260661158347 38 846 97 436 96 928 19 614 42 461 51 1536 85 1169 55 483
2136 -0.66126628000964072 1.7385056066042603 14.814443524043988 62 71 97 1.1868911735378083 38 297 97 438
2138 -1.1605363863892917 1.4810856214179151 14.543804790144982 250 209 57 1.2562763789706479 30 582 38 562 97 445 8 896 96 508 19 350 42 392 51 224 91 275 85 214 99 294 55 395 76 1306
2139 1.3226238274552948 1.7955924294287104 16.890463214946507 87 60 12 0.70698834648985587 30 465 38 472 97 448 96 522 19 979 51 431 91 458 85 518 99 455
2140 -1.8828246238597688 1.394148955780782 14.950802655940329 162 167 191 1.1544513423455931 30 918 38 914 97 450 96 519 19 618 42 408 51 630 91 587 85 761 99 603 55 405 76 728
2141 4.8384322162905589 2.0047865231571058 20.396901343004842 186 168 130 1.2622586526655579 30 461 97 454 96 362 38 468 19 420 42 443 51 428
2142 2.8673320162432039 2.7845174976843943 18.199330973637643 96 79 52 0.88177022754863743 30 385 38 450 97 459 96 544 19 267 42 417 51 327 91 426 85 390 55 409
2143 0.026014761576907346 2.2825561558642558 15.597003858198086 10 5 2 0.87214249093159246 38 459 97 465 30 491 51 291
2144 2.9992328450020955 2.7908408585944047 18.203049603520785 89 81 61 0.62941416782613691 30 395 38 461 97 469 96 543 19 636 42 1119 51 343 91 423 55 1021
2145 3.9103740748687099 2.7611386205696471 18.133684899807506 215 200 162 0.42781975737024108 30 640 97 471 96 542 19 346 42 247 51 347 91 416
2147 3.2753083650280925 2.7364231343110599 18.319212207736406 85 75 52 0.61657960838819625 30 398 38 451 97 476 96 549 19 549 42 622 51 337 91 479 85 396
2148 5.0412030724011174 2.6813924702825425 18.33847144349518 212 197 160 1.062360903626077 38 755 97 478 96 551 19 596 42 628 51 348 55 264 76 1042
2149 3.5804152428857146 2.6776421147953262 18.450710680364249 91 83 61 0.72427963585372335 30 401 38 452 97 481 96 555 19 601 42 626 51 442 91 211 85 395
2150 3.895018483819273 2.6136854345997116 18.573414857232528 100 89 67 0.7223303696782658 30 403 38 454 97 483 96 498 19 605 42 633 51 440 91 391 85 400
2152 2.4033285203871251 -0.92895230464912626 15.647071259488184 18 15 14 1.0157350477461247 30 623 38 635 97 492 96 756 19 847 42 698 51 561 91 508 85 1232 99 1008 76 543
2153 4.7392094423842579 2.4850009517343072 18.879473825509844 213 199 161 0.98137798136139021 30 708 97 494 19 620 42 464 51 446 91 395 55 480
2154 5.5542648823956355 2.4590934505715589 18.919363120441538 200 187 150 1.0352077673585689 38 1321 97 495 30 715 96 503 19 619 42 466 51 443 55 472
2157 2.1783342294081001 0.43373711373374529 16.743582259207013 159 113 48 0.59870996933798371 38 704 97 500 91 448 85 221 99 302
2160 -3.118460116242836 -0.27197102112653176 13.896862013623894 254 227 70 0.47665975424693574 30 897 38 1061 97 506 96 582 19 640 42 538
2162 -1.599216148153723 0.38388592410391914 13.2763174165271 142 92 12 1.7952657540744417 6 1487 97 516
2163 -1.5907214175981035 -0.33631911510923052 14.073418940010939 105 91 25 1.1014970616423225 30 622 38 641 97 517 96 613 42 1145 51 555 91 506 55 1252
2164 -1.6211992326558022 -0.40744524807936744 14.07809376399168 254 230 79 1.2381586228468118 30 893 38 1056 97 519 96 593 19 700 42 799 51 547 91 502 55 675
2165 -2.3601361352697414 -0.39102955291430996 14.085593327320172 172 127 25 1.0190125338057014 30 892 38 1055 97 521 96 610 19 483 42 508 51 558 55 519
2168 -3.241702041479761 -0.37278399136751444 14.188799366433036 254 228 70 0.74792367572585527 38 1600 97 527 30 1743 96 611 19 702 42 500 55 298
2169 -2.5791264643814467 -0.34924800448467402 14.012340992664168 168 127 26 1.6881246529078853 30 895 38 1059 97 529 96 616 19 638 42 498 51 958 91 1985 99 1818 85 1944 55 660
2170 -2.6630832191752249 -0.30098413314695688 13.923536076020708 254 230 78 1.540278212253287 30 313 38 376 97 533 96 578 19 707 42 489 51 556 55 658
2171 -2.5620929143378262 -0.27278757880315191 13.880532305189021 254 227 69 0.95161074459321338 30 883 38 1063 97 534 96 576 19 712 42 546 51 986 91 1995
2172 -0.15233097759762673 0.59955538448504742 16.245389373794193 164 138 55 0.62586678032869714 30 962 38 870 97 535 96 333 19 395 51 676 91 599
2174 3.6133861402590273 1.4394269945278129 22.116413244852961 208 194 158 0.67609846775332005 30 946 38 930 97 539 96 619 19 398 51 612 91 594
2175 -3.4095087813670899 0.73755576447043636 15.355496618713474 121 91 19 0.82067639616582055 30 840 38 857 97 540 96 635 19 2063 42 1070 76 491
2176 0.54530247665318088 1.0163387278887368 15.568657504184991 81 58 9 0.38188921731604242 30 976 38 940 97 542 96 1042 19 2056 42 838 51 2115 76 275
2177 3.2420332414186763 1.6028841487450298 21.546707086017179 87 76 54 0.556387095880994 30 600 38 564 97 544 96 562 19 388 51 490
2178 2.8170282998910494 1.6581934481431162 21.446338140614181 98 84 60 0.71894958214017823 38 565 97 548 96 632 30 590 19 389 51 634 85 580
2179 2.9391312863534496 1.6688508346349025 21.405220425633345 100 86 59 0.50975959301667484 30 598 38 567 97 549 96 633 19 741 51 633
2181 4.9947722940578396 1.8055027176669918 20.853692652197939 188 170 132 0.8209246407083195 38 1231 97 559 96 370 19 433 30 751 42 539 51 433 91 456
2182 0.79862751213424865 1.3406163585135398 15.564185357028279 59 63 68 1.1613894685068118 30 917 38 916 8 1305 97 562 96 875 19 1157 51 1442 91 948 85 1772 55 1595 76 723
2183 -3.3512780579300583 0.46669130930149993 15.29095594829365 189 141 68 0.8157597435518511 30 628 38 517 97 572 91 1075
2184 -0.13989005239183436 0.69343943735752167 15.792249732530292 166 140 44 1.1462297843703257 30 332 38 308 97 574 96 620 19 759 42 458 51 1036 55 645
2186 3.2777004903972813 1.3398327643315662 22.362388720957682 49 20 3 0.44709150555895633 38 554 97 584 96 662 19 684 51 632 30 837 91 568
2187 0.51500768888491666 -1.8558330870902862 16.721897257221759 99 76 30 1.0545863777151647 30 1087 38 997 97 587 19 776 51 1206 91 2189 99 2598 76 450
2188 2.226865981167605 -2.593189726308474 16.924361326510276 132 110 39 0.09096564973011434 97 589 19 771 96 672
2190 2.7571792249217753 -2.2957484921323532 14.999952457483349 3 3 3 1.2929332156010043 30 1008 97 592 96 677 19 775 42 898 51 1095 38 975 91 1772 76 841
2191 4.284792971500643 -2.3343292574481285 14.788279160803654 186 149 39 0.70571628878637682 30 382 97 594 96 974 19 1208 51 503 91 538 76 843
2192 3.0518917900780225 -2.2399755488353401 15.128421807420366 93 72 12 0.83824056141551295 30 565 97 595 38 2006 96 665 19 647 19 2305 42 695 51 1210 91 1103 85 2340 99 1719
2194 2.6928631164246868 -1.9112968037737179 15.67596712719576 114 92 22 2.081714621267365 30 374 38 398 97 598 96 383 19 468 42 901
2195 0.88972300223649625 -1.847151095506631 16.706518315447681 64 66 81 1.7873216853122331 30 371 97 600 38 1945 19 1210 42 1290 51 522
2196 5.2683432449166743 -1.9663472751112552 16.305535607248238 240 223 65 1.1999527852737253 30 557 38 821 97 601 96 223 19 465 42 323 51 591 91 547 85 465 99 478
2197 0.32155362403223153 -1.7482088508019875 17.329044435601439 107 116 144 0.28351654585449609 38 1019 97 602 30 1099 96 1107 19 1212
2198 5.3887361038262815 -1.8752375629262927 16.193107637397464 0 0 0 1.1134562479341781 38 600 97 603 30 521 96 375 19 286 51 1212 99 550
2199 2.6524133966956591 -1.6347290882395573 15.754744251782665 115 101 42 1.2497990116900999 30 368 38 598 97 604 96 560 19 462 42 866
2200 5.6519281286550402 -1.7481370361053918 15.950230271431733 246 222 70 0.61332240663021764 30 2157 38 1718 97 605 96 976 19 786 42 770 76 1143
2201 2.5641762556202368 -1.3791528644176443 15.646838644676896 127 113 51 1.3971006884111701 30 365 38 605 97 608 96 690 19 788 42 870 51 364 91 318
2202 2.0714184961720639 -3.8993642637376951 17.375920912207402 126 91 14 1.7612233588393267 30 996 97 611 38 1851 96 693 19 793 42 883 51 1702 91 2228 19 791 30 994 91 2230 38 1025
2204 2.4071149996074923 -3.5975881325647201 16.686068315916579 151 137 50 0.29899216521461369 38 1028 97 614 30 989 96 699
2206 2.5527969291142005 -1.1495267802264355 15.717600205480815 84 67 15 0.66078989332511806 30 535 38 653 97 622 96 747 19 839 42 860 51 1190 91 1983
2207 3.1142572708170628 -3.0476447879710444 15.334028115634588 147 136 51 0.46433739426367165 38 540 97 623 30 548 96 713 51 1075 76 773
2208 3.1946989911219874 -3.0165892656545443 15.28601759253964 114 88 16 0.87712263276189872 38 534 97 624 19 672 96 399 42 277 51 581 30 547
2209 3.2606007056574571 -2.9406195529564525 15.072341578962085 145 132 49 0.50772588970989641 38 646 97 625 30 2053 96 715 19 811 30 546
2210 3.3855300267606854 -2.8213765588082005 14.7393578924791 146 131 49 0.11181513942304538 30 543 38 648 97 626 96 666
2211 3.5261964278405959 -2.7114992012686718 14.456885913947586 145 130 49 0.17566960231424761 30 541 38 611 97 627 96 568
2212 2.3017877466929071 -2.5629245255400614 15.529316945485933 44 43 45 0.42954696810155663 30 1003 38 977 97 631 96 1155 19 1264
2213 2.6580671264987665 -2.4741537112785998 14.83632094071042 97 110 140 0.49125470460351078 30 1002 38 980 97 632 96 673 19 772 42 895 51 1101 91 1004 85 1109 99 939 76 785
2215 -2.9295234439485891 -0.65815644902373116 14.678625286971338 174 129 24 1.0482909437003416 30 1068 38 1052 97 635 96 725 19 912 42 734 51 1161 91 1817 99 1900 85 1924 55 512
2216 -2.7035563763204844 -0.61390762931259013 14.629994911299748 254 231 75 0.72669897629493518 30 539 97 637 96 419 19 221 42 227 51 361 91 308
1675 -3.9742562134392609 0.15746232331985119 12.334704146430141 250 178 41 0.87785883592835967 8 1295 65 1561
2217 -2.0140875628990056 -0.60408569373882448 14.505368656653943 183 127 24 0.64964711874732184 30 1074 38 1047 97 638 19 495 42 735 55 501
1676 -5.4837411786778416 0.2510881873693307 13.61120467520421 253 195 48 0.14728577922246616 6 1486 65 1566
2218 -1.6650354229196611 -0.56011625466940018 14.389706879727653 182 134 25 0.89716815806811667 38 1042 97 642 30 1077 96 733 19 814 42 703 51 1177
2219 -2.8154385989068169 -0.55408959400876012 14.457736957474548 178 129 26 1.1080837100514043 30 1076 38 1043 97 644 96 736 19 491 42 742 51 1187 91 1794 99 1957 85 1912 55 529
1678 1.2549603656621986 0.60632935110950348 15.845022448428125 199 195 211 0.27125126130947885 69 1347 65 1589
2222 -3.4946779948536317 -0.49919421781656964 14.512798549476102 0 0 0 1.2570244140132811 38 382 97 648 19 217 42 238
1681 -2.6564858393785826 0.41620887976297616 13.168248208714873 224 158 39 3.0347737190302184 38 200 65 1614
2223 -2.4627090751620693 -0.48828104287900415 14.3194337323079 173 124 25 0.86878817235734274 30 1815 38 1431 97 649 96 1174 19 835 51 1947 55 1157
1682 0.18904674255573864 0.72198997230846018 14.46881685375936 160 146 156 1.9500470534412919 38 527 65 1624 30 633
6202 0.18292630923272485 1.3114479072276821 16.650812400878515 0 0 0 0.86926514684070366 6 891 96 1068
1115 1.0608062359022454 1.1103792739035787 15.177990084037191 203 131 23 1.0284595946742066 38 1533 92 1079
2224 -3.0383204599019225 -0.49099304655320303 14.363000081611132 177 130 26 0.65304710388859377 38 1041 97 650 30 965 96 597 19 473 42 751 55 538
1683 -2.7354868092267806 -0.19521780489832186 13.828637971474016 150 131 126 0.33808832071705586 69 1236 65 1645
6204 1.4717295256064327 -0.64096002115336737 14.858018461376203 96 110 140 0.0044267752821927683 30 1795 76 1357
1117 -0.027774179271339881 1.3620571534740642 15.364283597620146 254 218 55 0.49359094081798016 69 866 92 1101 6 1290
2226 -3.3549220711072691 -0.47854328444850164 14.41283166866779 253 227 69 0.68588164834081544 38 1470 97 652 30 1749 96 598 19 913 42 516 51 1185 55 324
6205 3.9309205280610851 3.3523919361642749 16.06365183927058 0 0 0 0.58086583196741615 30 2316 38 2264 76 1377
1118 -3.3941071314622886 2.1303863464280974 14.816941184905373 127 101 92 1.0826724624326576 69 581 92 1104 6 920
2227 -2.1333431842102111 -0.44816921053600978 14.178089148633951 165 122 27 0.95502321518287492 30 887 38 1053 97 653 96 602 19 486 42 752 51 907 91 1064 99 1852 85 2402 55 526
1686 1.3554566253550333 -0.01558148395316283 16.157994592606034 254 228 55 0.18878215334183865 6 1528 65 1649
1120 -3.7562664846057676 2.9248532377538949 15.407373197260407 3 0 0 0.70236717539796911 69 1366 92 1113
2229 -3.026646806499929 -0.82933291302814138 14.920539028090879 242 223 69 0.86385875730961914 30 1061 38 1434 97 656 96 757 19 448 42 777 91 1119 85 1133
1688 -0.72837625526646754 0.23695330118190666 13.903287471004745 254 228 60 0.35499499379462351 38 202 65 1675
6208 2.0853683940523902 -2.5645769936164458 17.29890683813035 144 112 35 0.97804426719522408 19 2358 76 1417
1121 -0.30030029156821697 1.8403754736630025 15.189053478734566 120 108 108 0.40325543262827374 8 1250 92 1124
2230 2.4226440773763538 -1.084232091084617 15.634380035774191 19 17 15 1.0479986976258129 30 537 38 658 97 659 96 748 19 639 42 754 51 536 99 1874 76 545
1689 -2.1719812126528786 2.1047655416651043 14.573262984514621 173 152 137 0.28348757544155967 6 1020 65 1699
6209 2.0635504804117346 -1.9020351886588416 15.133961527138233 123 104 45 1.3260229417875289 19 777 38 2002 76 1418
1122 1.7603436284742542 0.54099455902494398 16.040098096837205 1 1 1 0.74307797470361614 8 639 92 1132 6 943
2231 -2.8197948180594379 -0.88477095258787086 15.103769175208239 243 225 70 1.0758632694508719 38 1436 97 664 30 1064 96 429 19 452 42 755 51 906 55 361
1690 1.844783645799281 2.653361633664971 16.078843688534736 8 9 10 1.2696829006931249 38 2365 65 1710
6210 -3.4556226851705283 1.2364262585160997 15.44995239545262 92 66 6 0.81668394894169938 97 1169 76 1428
1123 -0.13075079258501909 3.4448593016607307 15.522553387273057 104 80 52 1.813023130078792 38 401 92 1137 30 505 8 1488
2232 -2.0165554022809498 -0.87818669523875925 15.094471647784957 187 133 24 0.79949712604677403 30 1058 38 1068 97 665 96 755 19 451 42 756 51 1218 91 1806 99 1901 85 1929 55 575
2233 -1.6568336582531988 -0.82414986349091457 14.956565800902505 184 130 25 0.43062187351761083 30 1050 38 1088 97 666 96 758 19 849 42 775
1692 -3.2529102880012819 1.7878304735738733 14.106700869699553 239 171 42 1.4522298221233143 69 1607 65 1724
6212 3.3929863077885773 -1.3609806540643758 15.125291776575972 95 63 6 0.053771506136559274 97 1916 76 1455
1125 0.99583428670133878 3.2850454087520635 15.893720148838966 175 173 192 1.4828301906772194 69 1161 92 1145 99 2401 76 2081
2234 -1.8970594964650269 -0.76592130651472434 14.849847778219628 183 129 23 0.42921888061088803 30 1056 38 1091 97 671 96 765 19 446 42 774 55 567
1693 -0.97251782808504317 2.2368305733242781 15.212596338416356 142 129 132 0.64496501282448682 65 1733 76 393
2235 2.2119709967397867 -0.82495559027953524 15.761840082663564 107 59 4 0.66623235308104201 30 896 38 640 97 672 96 764 19 838 42 877
6295 2.3455125739310536 -3.9035516306595746 16.909368066782839 0 0 0 2.7514293772344023 38 1022 76 770
1208 -1.6595132811341318 1.1481487501404373 13.699654400903359 190 185 199 0.76144511048629482 38 575 76 317
2317 1.8053324765543857 3.1509235812514795 16.131862953998329 0 0 0 0.25224538094620819 30 1230 38 1130 97 870 76 556
1776 -2.1805922385387846 1.3129113704844753 13.9732514267389 114 80 14 1.8149039385735448 69 1107 30 88 85 758 99 582
6297 0.59390127054119246 2.5675900094559485 15.333527345305367 48 48 61 1.6487280436370699 69 608 92 1446 76 963
1210 -1.3424486378496736 1.3307113694036072 14.177683862044502 254 224 60 1.2914888226842616 38 161 6 1098 65 1362 30 137
2319 -3.5357304174380553 -0.16773790368029917 14.826572882982621 0 0 0 0.66793740657449163 30 903 97 875 42 2089
1778 -3.2870207089735857 0.066346860899571897 14.499439350239218 131 108 28 0.036650607791182968 38 52 30 105
2189 4.3442967665716843 -2.4073176368390068 14.743103532204346 0 0 0 0.73025090847274476 30 564 97 591 91 536
1337 -2.2869313910708353 0.82185166581754587 13.602596713105786 209 149 35 1.5022651147068387 38 1400 6 693
2446 3.4612151150509356 1.3521468222922464 22.433944767393168 204 193 157 0.89941783267856856 38 905 97 1292 96 1002 19 1103 51 1003 30 1418 91 952
1905 0.42509518032566584 3.1324459845192636 15.353456194899927 36 44 60 2.1461622754866281 69 1643 30 2274 91 106
6298 0.061263230546805617 2.2946883688543558 15.12384821144464 3 1 1 2.8370216176048042 69 1090 76 997
1211 1.029573981116795 1.0184274521155134 15.405974898831097 200 113 16 2.1657070477479565 38 341 92 459 30 588
2320 -0.73214180361744585 2.3989235384807821 15.375967244017502 84 76 20 1.0484178937222262 30 1528 38 1742 97 878 96 1405 19 1528 42 2581 51 1149 91 718 85 2792 85 1392
1779 -2.9489553819955865 -0.1072871841711055 13.644846729653482 114 95 23 1.1572680744465718 38 120 30 123 97 114 96 122 19 142 42 117
2321 3.1322462609820176 2.8240082863260505 18.162386550387833 204 187 149 0.90792783672722166 30 1121 38 1152 97 880 96 811 19 890 42 1105 51 714 91 632 55 1041 85 882 99 629
6300 -0.094312529582230353 0.87172239829557119 14.812296431987987 0 0 0 2.8134350867233531 6 450 8 205
1213 1.1263053536448457 -0.029182547337924435 14.755291922947203 169 86 8 3.0482442375291861 38 51 92 881 30 50 51 63 91 42 85 88 99 78
2322 -1.5861908930395627 1.0432590614349344 15.502366451858975 173 114 21 0.67628578695240515 30 975 38 938 97 884 96 1065 19 993 51 1059 91 854 99 800 85 2069
1781 0.32806409042977536 0.15178805066830783 15.085477342007133 214 184 67 0.83471966684427901 38 115 30 128 97 124 96 120 19 102 42 103 51 139 91 190
2329 -2.7365368056169341 -0.31303986648747845 13.935790701330266 171 129 25 1.5407185808623551 30 1798 97 907 96 1836 19 1821 42 2142 51 1859 91 1987 85 1947
1788 -0.22945629737611045 0.068002653754992051 13.484957136680318 0 0 0 2.3648460934080213 38 320 65 1691
6305 -0.46062334467878846 0.03181075094542192 14.278614260574871 0 0 0 1.0447478714863998 8 1404 38 548
1218 -4.1021227104918347 1.2412869269963807 12.636005153438452 0 0 0 0.34305708026163395 92 10 6 3
2327 0.16642340168690797 0.72374039435237658 12.073823911506144 0 0 0 0.20941367463558641 8 499 38 899
1475 -1.8513490729353494 3.2485112229166027 14.584208825755624 157 148 158 1.716770115061367 38 95 8 1534 6 144 6 1787 69 1629 8 999 30 102 97 111 96 108 51 76 91 81 85 112 99 93 55 254
2584 -2.9476056624050018 0.11425834106191764 13.829564613161837 114 104 29 1.2123645759592436 38 2058 97 1811 76 1063
2043 -1.4832461216003221 -0.062681027146558668 14.257741984515905 105 92 26 0.45895704765802109 30 191 97 186 96 179
6310 -1.4026617635952907 3.6056206513879472 15.028089563918172 50 60 85 2.1149090676990574 92 1574 30 2178 6 1185 85 1726 99 2407 76 1414
1223 1.9750513282978528 2.4978820364477112 16.295849519965618 0 0 0 1.9576397011502134 8 14 65 27
2332 3.074757168718802 1.6858782359260855 21.312568415226547 206 192 155 0.72087401164605047 30 1568 38 1474 97 915 96 1046 19 1141 51 1448 55 911
6308 -1.6671685244926906 3.784244366171222 15.179942830250878 2 5 10 2.4421053981346237 69 1660 76 2088
1221 -0.12913878718398483 -0.62937336954175715 16.089233879414984 254 204 44 1.3006707957971169 92 15 65 8
2330 -2.4826835077539799 -0.25665690749973646 13.855719247246702 133 114 28 1.5255672765976263 30 900 38 1064 97 912 96 585 51 973 91 1057 85 1218 99 1051 19 713
1478 1.4859879654612411 2.6169419415360409 15.944426772472232 72 62 68 2.3098219327390224 69 605 8 573 92 566 6 932 38 1140 69 782 65 1167 30 657 30 1173 97 1092 65 914 19 1523 51 831 51 1497 91 638 85 637 99 1109 99 1115 42 1918 19 2494 76 970 76 1225
2587 -1.3399117262601854 1.1244185717758926 15.311323782521532 114 74 9 0.77039506346057463 30 1398 97 1828 19 2087 51 2082 91 1953 99 1475
2203 2.2042054497873043 -3.7789852235368615 17.133178048538891 125 92 15 1.2959201954530368 97 612 30 992 96 696 19 794 42 718 38 1023 51 1141 91 1840 38 1027
1351 -0.066611944299212619 2.7742809262629349 15.222519702533322 200 142 32 1.7181450646844254 38 503 6 822 65 1760 30 682 97 2108 19 1390 85 360
2460 -2.7761224999767782 -0.48997972487173852 14.317429402074595 254 225 64 0.65062309025480625 30 2154 97 1356 96 1173 19 1271 42 925 51 1943 91 1548 99 1937
1919 1.7591529760716587 2.9399125637068297 16.210520789807404 69 59 46 1.9197996069291123 38 221 6 229 30 234 8 1021 69 1769 65 1745 97 239 96 444 42 653 91 236 51 1597 55 590 55 1867 91 1715
2334 3.845805254840899 1.7433943801232117 21.358303263894772 81 67 37 0.71123296581543705 30 1260 97 917 96 637 38 1284 19 760 51 1435 85 1051
1793 1.8007245715423341 2.7565270877118868 16.069104552729961 1 1 2 1.8941989617749002 38 251 65 1771 30 238 96 2411 19 2489 42 583 42 2775
2338 0.55447991133782004 0.88969153374820342 14.767350463907357 0 0 0 0.95335809740552169 65 714 69 197
1797 -0.77245549568996086 0.89508304314079767 13.598039505078757 217 172 64 1.0794245453494729 8 1218 38 854 97 1275
6317 -2.345796664227501 2.8421630306461463 14.310520388487484 68 53 34 2.1781411347018791 38 1128 97 1153 96 1324 19 1898 42 1881 8 1142 30 1220 85 2523 91 1714 76 1931 6 1154 65 1072 97 2076 19 2475 42 2556
1230 -2.1809563270040031 0.76933296328182188 14.428493943451873 168 113 24 1.5968324888673262 92 44 6 45
2339 0.58406010521083251 0.55694545398698747 15.1789918112128 75 60 22 1.4977537745482448 38 1409 97 948 8 968
1798 0.57572714804679115 2.0652820668359122 15.612007310443607 7 4 2 2.4852296385807122 38 1520 30 285 97 206 96 287 19 1482 42 1540 91 1017
6318 5.4638490603524597 2.9566262322259265 17.503698499036108 122 112 88 2.1308017978144336 42 393 51 309 97 401 96 313 19 368 55 213
1231 -3.9781317364630988 0.56342765525981786 14.479998299497815 0 0 0 1.1879932273547762 69 41 6 46
2340 -0.10008331372409643 0.49333287592684072 16.31337619747082 134 91 13 1.5070124386717991 30 1959 38 1888 97 949 96 1041 19 754 42 784 55 750
2337 -2.1556400332775905 0.60888187050917397 13.415876616814371 55 55 65 0.18942410847586694 69 651 97 936
1796 -1.7632519660779085 1.2117071390047318 15.127256013061103 254 219 71 1.005673741134681 38 280 30 271 97 457 96 349 19 572 42 609 51 201 91 285 85 198 99 155 76 499
1485 1.1968187710313258 0.40201761382262713 15.984896402953646 247 198 50 1.0284784881240336 92 1057 6 1443
2594 -2.7057527469284262 1.6574821951009404 14.198587895738102 116 100 28 1.00025349302639 30 2219 38 2283 97 1863 8 899 19 2685 42 2582 51 2577 91 2495
2053 -1.4213136065110274 1.1560113692291822 13.76354707756566 57 33 1 2.1403538349301492 6 1464 69 1381 97 205
2347 1.479122655500519 0.72237823898996356 16.643181304844312 102 81 19 0.65005287126753819 38 1391 97 967 19 2218 51 2066 91 2147 85 1660 99 1467 76 1301
1240 0.42627291707882015 -1.0452996320232093 16.046239310808726 236 0 0 0.29148347489994886 8 114 6 108
2349 2.3445292709919916 -2.7365518725889468 15.37261949811373 0 0 0 0.20483413291758976 30 2038 38 1655 97 974 96 969 19 768 42 681
1241 1.2878398932323216 0.018820087271503461 16.219223865714564 251 180 40 1.3209386475697549 8 76 92 194 6 111
2350 3.5670341210485783 -2.6488972777075976 14.410698941428862 99 74 11 0.90886576035452615 30 990 38 984 97 975 96 1131 42 2414 19 2518 51 2275 91 1012 85 1111 99 940 76 776
2220 -1.7753394188780729 -0.66092921111911374 14.603170148111738 177 130 25 0.55688971576248114 30 1070 38 1051 97 645 96 724 19 498 42 728 55 505
1679 -0.9704229798851991 0.69917817452661846 14.112912311634007 248 201 52 2.4746966323068671 38 194 65 1598 30 133
1368 -3.4150677492705879 1.9086601416011297 14.556679872118947 116 104 107 0.15944819035261631 92 1075 6 1007
2477 -1.9635043508557473 0.57786808637582798 16.73139583006326 191 150 58 0.95514130808328102 30 1956 97 1400 19 2551 42 2291
2095 3.2833879382990476 -2.0953489965066718 14.666333449002012 138 125 46 0.79925356777411816 30 567 38 625 97 334 96 384 19 472 42 324 51 597 91 539 99 963
2352 2.4251109726044553 -2.6365380418245516 15.120988989896905 67 70 85 0.46336619894270176 30 1824 38 981 97 978 96 1828 19 1263 51 1105 91 1014
1811 0.99117354021646176 0.022884409144634171 14.814862343644064 121 89 19 1.8970811386579283 69 42 30 484 96 984 76 347
6313 0.40111882519897668 1.3310519067737956 15.344216066931137 154 125 32 2.450155255966544 38 587 6 251 65 90 69 111 8 158 19 571 96 570 55 612
1226 -3.0573074693644902 2.2220614418107778 14.893027490826652 189 126 26 0.70571853104608184 92 21 6 30 65 32
2335 0.1497898197014686 -0.14497678003367401 17.372347004731097 0 0 0 1.2510022154408686 38 881 97 918 30 2104
1794 -0.81404453084355655 3.5670876429125604 15.446518995060718 2 0 0 1.1922679836492269 38 445 69 559 30 254 76 583
2205 2.6940761402968025 -3.3875881529380441 16.164422363171152 149 133 51 0.40061823980230926 38 1033 97 618 30 986 96 705 19 803
1353 -2.4768151000979364 2.7331631826329734 14.196744301658345 25 19 17 1.0217761273412942 38 2218 6 831 30 2234
2462 -1.6868404267861961 -0.42179271334483215 14.057352804881901 155 118 25 1.3164991894011777 30 1744 38 1469 97 1361 96 1912 19 1981 42 1359 51 1855 91 1990 85 2135 55 1759
1921 -1.5481935458475764 1.4359836370231704 13.901117184316421 116 80 18 2.1090723158289877 8 1281 38 2322 30 1915 6 1289 97 1315 96 1355 76 306
2336 3.7649815920676399 1.2799842436091975 22.512277594880327 189 177 143 0.47795635049317714 30 1425 38 1499 97 929 96 996 19 1107 51 1009 91 946
2333 -3.0420284370476107 -0.25954699771479711 13.890944871213721 134 113 27 1.5145000570307536 30 898 38 1062 97 916 96 586 19 714 51 988 91 1058 99 1060 85 1948
1481 1.0286317005789549 -0.55512521095238176 15.766890539452087 165 92 13 0.61171772683872039 69 108 6 130
2590 2.6228069324391741 2.6373235393348908 18.527069634115868 113 97 68 0.68969054052764978 30 2432 97 1844 42 2745 51 2553 91 2387 85 2546
2513 2.0029772587393424 2.7642732962022993 15.865120620650405 5 3 4 0.36157078777250246 30 1558 38 2351 97 1557 51 1304
1972 1.868356874603017 -2.6367044563499893 16.80636961701709 113 79 14 1.3825623544330281 30 38 38 34 19 53
6237 -3.1203842187294675 0.71204508162087843 12.519030457205696 84 59 5 1.940847693654763 92 824 76 1822
1150 1.4138897254339091 -0.53375430376688382 16.10083388658159 160 80 5 1.7283905853915442 69 1787 92 1331 65 1546
2259 3.0495691294510658 3.3547170866572484 16.728293243851351 80 74 56 0.33543213443656295 38 728 97 730 30 744 96 863 19 949 42 651
1718 -0.66422104911743252 1.7654845002608088 15.026180809891407 199 195 214 0.32404584303055206 92 1512 65 1866
1463 1.0257928518030683 1.8310242037556534 15.674705353892547 253 195 51 1.5180018504269552 38 1525 69 1587 6 1735 30 1621
2572 0.4204661092299446 0.68346564257258524 14.433433313527292 89 59 7 2.2309014803904734 8 427 38 862 30 1949 91 2157 96 2091 19 2273
6206 4.5826432452873878 3.3574389247815377 16.26629064312375 73 42 27 1.518597410257178 30 1199 38 737 42 1960 76 1378
1119 -1.6959551352262863 3.6308543550355954 14.845784992920509 172 171 186 1.8210345119639622 8 1510 69 1210 92 1112 6 852 30 2485 97 2145 91 1044
2228 -2.7047988401281731 -0.45047507810133841 14.245524610717622 176 129 25 1.4235312770049924 30 886 38 1044 97 654 96 604 19 629 42 515 51 971 91 2008 99 1944 85 1957 55 531
1376 -2.4990194854862398 0.37216864564288527 13.464663676417336 198 199 219 0.44243477630171907 92 1191 6 1119 65 1562
2485 3.4574873868454796 1.1852161262831304 22.483842281294891 140 93 68 0.43153458945677198 38 1564 97 1419 96 1543 19 1315
1944 0.17632539337355899 0.22689841057588445 14.545795579149686 0 0 0 1.1714692904630648 92 852 30 843
2316 3.932419943202738 1.2020533208832744 22.728741223693788 19 0 0 0.65359794116774328 30 924 97 868 96 653 38 910 19 705 42 905 51 663 91 560
1775 0.66414630210092807 1.1225496647733144 14.699924239974052 105 90 25 1.3794123100850433 8 256 65 726
2236 -3.0351187369825148 -0.75952694711700242 14.886761340111812 163 128 28 1.1126740270263937 30 1764 38 1090 97 673 96 729 19 858 51 1216 99 1910 85 2449
1695 -1.9664985091232958 1.9408162963530373 14.483074246591752 124 121 134 0.23121201625666782 6 1634 65 1776
1384 -3.0395849968732049 2.9543313644137674 15.126766575716188 214 133 23 0.70353834296865603 92 1646 6 1141
2493 -0.055753659972708307 0.54398764136272026 16.313080165414487 181 147 62 0.059363504887161342 38 1872 97 1441
6217 -2.7751811007551832 1.5847200396933117 13.511369491934813 0 0 0 0.21056772762445464 8 849 92 1320
1130 -5.8983958260570724 0.017752834136705951 14.523049894552928 216 133 32 1.8713088455915754 92 1184 6 1121
2239 -2.7059042168358163 -0.70466432088010089 14.777828474071937 185 131 25 0.66712176493048414 30 1065 38 1093 97 677 96 721 19 646 42 727 51 1165 91 1814
1698 -4.9731607027181166 0.66724396426806265 12.800442533772525 254 197 50 1.549432170281472 6 1469 65 1793
1239 -2.831185438235865 1.8233641640227376 13.761059859603726 201 129 23 2.5998304188218873 38 470 6 99 92 95 30 731
2348 2.0085637229077777 -2.8627560346678829 16.168074226356879 100 110 137 0.83474494236096686 30 999 38 982 97 973 96 1130 19 1259 42 1264 76 1497
1807 0.53731840364913608 1.2786195336560267 15.162985285967244 0 0 0 0.37570832800274512 69 1534 92 1474
1242 -2.9100873294989609 1.0148404873991728 14.256184848109708 0 0 0 0.33969851046352201 38 345 30 1407
2351 2.0602426708355792 -2.7928268494361448 16.254123828667844 64 64 67 0.6146091111009041 38 1978 97 976 96 1809 19 1997 42 2380 51 2278
1810 0.44671379666961353 3.3640219563322651 15.72623423944092 10 5 2 1.7465579726216773 38 407 65 830 92 742 30 482 76 1430
2127 5.8141860364766895 2.8937723864968046 17.612134226939094 192 177 141 0.7872184936476686 30 419 97 406 38 784 96 310 19 376 42 401 76 578
2384 5.4225600096639077 -1.7387360371036855 15.862710120581902 161 103 16 1.1107707851587167 30 1839 97 1050 38 1596 96 1117 38 2178 19 785 42 865 51 1170 91 1801 85 2111 99 1012
1843 -2.2881507614578034 0.95784540758571479 12.981956116527071 0 0 0 2.8929898183555363 38 1921 65 926
2257 3.5126027975406231 3.1577966050585156 17.237810127959591 101 90 65 0.44841946221528872 30 805 38 670 97 728 96 849 19 938 42 970 51 812 55 938
1716 -2.2547355559603117 1.5582980433074667 14.686142593104549 243 162 35 0.20395255359559045 6 1789 65 1862
2156 -2.5585501904524035 -0.68901135047068607 14.57033188276071 254 230 78 0.95241013341351044 30 1762 38 1430 97 497 96 722 19 499 42 302 51 1160 91 1818 85 2478 99 1960 55 350
1304 1.5971017040938551 0.37018176922025087 16.20499765416745 252 231 57 0.44344762379880648 8 518 6 459 65 491
2413 -2.8552786363368665 1.2603040395150766 14.173017626152305 110 0 0 0.90690682613417828 38 1541 42 2815 51 2001
1872 -0.14315218884013289 3.386208474211656 15.405937369115964 57 48 39 2.0449500988363383 8 753 92 1539 30 1651 51 1384 69 795 91 1211 99 995 85 1730
1434 -0.52404998608861808 0.27434105658238089 15.178618323366511 22 20 20 2.4366736781328946 69 1100 6 1509
2543 3.2484062653938488 -1.8126569452864691 14.62636730399549 110 98 26 0.4220702618877496 38 1689 97 1652 96 1970 51 1922 91 1748
2002 4.4209656122145731 -1.2814957746559625 15.383426043626388 106 92 27 1.8851597489998833 38 62 97 89 96 91 19 109 85 84 51 228 91 125 99 121 30 167
526 1.4816242330021505 0.34455130691311142 16.156960607762716 157 88 13 0.371911054296785 69 330 8 436 92 316 6 461 65 492
5613 -1.5240585697128912 0.42823921869188447 14.29776023682288 78 95 129 0.44826495339110539 51 950 99 1448 55 1675
2286 4.8859711437835935 2.0428472485711477 19.816227323168199 72 60 35 0.7093756466966108 30 706 97 810 96 878 19 998 42 821 51 764 91 685
1745 1.5704786699118964 0.56141638646258774 16.558491531617893 218 181 89 1.0208389574462751 65 996 30 960 38 871 96 992 97 512 19 742 51 1032 91 1970 99 805 85 1653
6302 -3.1601994720015174 2.4550765480954726 13.392878363837962 51 38 3 2.4065891197147273 92 1491 76 1246
1215 -0.83702536715997711 1.2852250257100468 14.508751269150228 253 154 20 2.1005084088667418 38 1836 92 1319 51 1728
2324 -2.9071158735553699 -0.055160581795228758 13.743105204531274 107 95 23 1.412846280830546 30 905 38 1084 97 888 96 1030 19 1133 42 1142 51 1839 91 2022 55 1774
2158 -0.15754969912160871 0.22874221969482891 13.434057704939802 116 88 20 1.3913467083778563 97 501 76 1662 8 1400
1306 -4.7638679342130787 -0.9796161638373988 14.737950113737002 254 142 17 1.0697452948446664 69 700 6 481
2415 4.7920022862713942 1.7997768688326061 21.017881951810036 75 63 37 0.89480131507427441 30 1264 97 1190 51 1459 38 1245 91 1313 55 886
1874 -1.7319674765542172 3.0264201170453768 14.627531182049839 23 30 45 0.97025845369637365 8 1122 92 876 30 1655 97 1444 96 2303 19 2736 51 2389 91 2341 85 2487 99 2379 76 881
528 1.4816719501424636 0.52439190598421148 16.711197959963009 242 196 80 1.6207704400424543 38 1879 30 1494 38 1403 51 2136 91 2077 85 2293
5615 -1.7437488371266248 0.88072527879118878 13.738190162376879 0 0 0 1.9095120229453191 8 184 99 1455
5988 1.8795239487248308 1.4642914320266562 17.039593485322509 131 137 158 0.68655332459238338 42 1238 55 1695
901 0.4529606639034191 2.7885053999532485 15.537929480125026 139 131 140 0.48253286170436155 38 1741 8 1463 30 1556 91 1733 85 1893 99 1508 76 1997
6266 0.61153810097251071 3.2578559630878985 15.791465879785076 31 37 51 1.1779775366981138 6 567 30 2474 76 2188
1179 0.72663423470408384 3.1298057651795848 15.778143406586569 155 153 167 0.14053580611568295 8 1452 92 1560
2288 -0.61954424651965123 1.4701974429692921 14.960085277653185 61 35 2 1.3708666789794006 30 606 38 908 97 817 96 564 19 617 42 620 51 436 69 311 91 563 85 1771 99 610 99 1380 55 231
2100 2.7735292199273447 -2.4622085187015896 14.844833564469786 4 1 0 0.37494060771079812 30 227 38 360 97 342 96 389 19 652 42 689 51 214 91 203 76 465
1248 -3.2104708374401714 3.0911869089607795 15.255085189217159 234 162 34 0.16755788787972342 92 159 6 146
2357 4.9890294341930819 -2.4618099821637407 16.571384033024891 107 87 17 0.25745047241489483 38 992 97 986
2599 0.44652361331000284 1.0698999597631156 15.837622056201937 93 72 12 0.67903142650654835 30 1892 97 1890 96 2072 19 2290 51 2111 76 1592
2058 1.5108629563902405 -2.8905667908561181 16.618896555915601 126 132 153 0.56065191889908905 30 344 38 349 97 216 96 217 19 255 51 227 91 206 85 274 99 235 55 169
2331 1.8111735037619885 -0.17030261043209405 15.516228761944435 102 87 23 0.54256693371503217 30 910 97 914 96 577 19 1267 42 1337 99 513
2133 0.35930687248678006 3.2818553250709237 15.90004535068987 5 2 0 1.3794709377381495 8 1005 69 1216 97 424 96 434 19 560
1281 -3.820972772657528 2.4465558042086815 15.61318350459733 162 158 168 0.73432832003741155 92 244 6 335
2390 1.4637222825435294 -1.1656927267307855 14.842837339253478 103 89 24 1.059263206648404 38 1075 97 1056 30 2000 19 840 51 1171 30 520 91 548 76 1139
6241 0.22397644619008583 0.43561107710804531 14.625325835874843 127 97 19 0.51861532165074276 69 340 76 1851
1154 -1.1120873192920642 0.14816067810583258 16.204647974197286 254 228 60 0.60073006224243097 69 1392 92 1357
2263 1.752888255375419 3.4988194472562473 16.126120350723898 159 144 109 0.24791627148787729 30 503 38 716 97 749 96 1244 19 1357 42 1830
1722 -2.4406612908791256 3.407689431037686 15.032600528855685 39 36 30 1.0023012532272011 6 1181 65 1887
6306 0.86342134931433856 0.65429672593822708 15.008128414247585 103 83 21 3.0926972441065397 69 1671 76 1785
1219 -3.2319429233065451 2.7789155634461857 15.14680830586912 170 144 127 0.41041313422552023 92 7 6 5
2328 -2.4775004094301578 -0.30992439670623362 13.886353899614685 254 232 81 1.6325278246969017 30 2097 97 906 96 606 19 474 42 490 51 989 91 1059 99 1056 85 1216
2167 -1.8739500830888769 -0.38282498241999796 14.081184337997041 254 230 78 1.5882298461386692 38 379 97 524 30 314 51 235 96 169 91 166 99 138 85 195 76 1172 96 412
2424 3.4284651548037619 2.7551494584567982 18.270452640525836 201 185 148 0.47163032316371173 30 1128 97 1228 96 801 19 1033 42 1115 51 706 91 1354 85 883 55 1035
1883 -1.939663913169944 1.2252168681742353 13.745015271804576 254 216 72 1.9655701716473672 92 1130 30 1883 38 1861
2297 4.6579677654932405 2.5835436557699092 18.731095644375031 100 91 68 0.6142034235438264 30 711 97 829 38 747 19 1056 42 1044 51 732 55 1063
1756 1.8269155455994801 1.7249718080642027 16.865108332174213 253 192 50 0.36557514831087934 6 167 65 142
2166 -2.9195218850634146 -0.39299125151005843 14.105623050532172 170 127 26 0.54596431512086363 30 890 38 1054 97 522
1314 -2.5471859405496233 3.0221218715983778 14.519399189556296 33 26 26 0.10613939492236327 92 725 6 568
2423 -0.024483675320369904 2.2149515471913932 15.64058015483158 100 82 19 1.2630575231306143 30 1314 97 1227 38 1506 96 540 51 1521 85 623 99 312
1882 -1.636443607701755 1.227506041135821 13.870591551680661 164 117 20 1.8777076776239283 38 1860 92 438 30 1882
536 -0.95648856654501302 -0.00071691343318153633 16.338209044596898 122 82 17 0.5962640498945545 69 331 8 453 92 408
5623 -2.2463010014554108 1.0178102676586183 13.589828200409718 65 68 77 1.0510372295352048 8 151 99 1485
6274 1.4282977068341474 0.047864473347132362 15.837899469986295 92 69 16 1.6127023806619134 38 2045 91 2050 76 1854 96 2197 85 1201 99 1058
1187 -0.23982671726135182 3.5305946026515507 15.639328018044274 1 1 1 0.86917964298875439 8 547 92 1598
2296 5.4286503833199591 2.5305618397567629 18.635000284061753 96 84 58 0.64817143810790934 30 710 97 828 38 748 96 934 19 1057 42 1039 51 725
1755 -4.4700141137856013 -0.22590136757220519 13.81671377005137 254 231 56 2.0074835302658709 69 1 65 2
2096 3.1448551443360668 -2.2007442604300254 14.937306327400927 133 116 33 0.43371574625976139 30 566 38 622 97 336 96 385 19 387 42 697 51 598 91 1101
2353 3.614381927297265 -2.5944164927285276 14.415180537270281 128 115 45 0.70435768849828706 30 2163 38 1767 97 979 96 1154 19 2051 91 2225 76 1510
1812 -0.90328268571749148 3.363042261890659 15.29846252541584 39 32 24 1.6091667020255278 38 402 30 502 6 559 91 2485 42 380 97 1160 85 496 99 494
2214 -1.2502601584094741 -0.63247723546552015 14.506828853828392 248 227 73 0.84460591940298058 30 531 38 662 97 634 96 421 19 497 42 730 51 359 91 482
1362 -4.9475178182048953 -0.8882037531741418 14.798934919886305 254 194 40 0.70941833018166145 92 831 6 959 65 1074
2471 -2.6650061527030187 -0.64402165170845294 14.632998728606369 254 227 63 0.66672426486037406 30 2136 38 2440 97 1383 96 1218 19 1320 42 946 51 1955 91 2293 99 1948
1930 -1.9681320293748716 2.5935941156009843 14.404942063943029 17 12 8 1.4472784469159408 38 1159 8 410 92 812 30 1117 69 715 65 958 97 1085 96 1227 55 1405
2155 -1.1845541709668679 -0.51381623062504078 14.990666381119777 0 0 0 1.4248375947769421 30 52 19 821
2412 4.9103852828171659 2.1884306328471026 19.443207669018612 185 172 136 1.514349791038903 30 1318 38 1507 97 1181 30 2335 96 1383 19 1156 42 1236 51 1461 91 1285 55 812 85 656
1220 -2.8487958293204221 -0.54295732121204887 13.444666461612416 0 0 0 2.0882934300308142 92 14 6 7
6307 2.186142927251197 0.61019833830802916 16.723645765813966 0 0 0 3.193483590742157 99 2003 76 1796
1871 -1.0137811095930054 2.040494265766243 14.312055065352403 87 58 5 0.6617950105083622 38 1515 65 1200 30 1608
2285 3.9412678866821809 2.1077279576860963 20.205143259819735 89 71 45 0.43783763067757642 38 1333 97 809 96 877 19 996 51 773
1744 -2.8849891211619845 1.0598035028695125 13.845078881390473 224 163 42 0.74545460647493333 69 1335 65 2062
6301 -2.8271274473666068 0.90640888741297376 11.756634810712081 17 10 1 0.91233095779264295 6 1061 76 1111
1214 1.6365622332123646 1.2654431222451408 16.213468439922245 244 199 85 0.20802463622145576 69 1169 92 1153 65 1251
2323 1.6590049451558337 0.035685209383323216 15.608996898689643 75 52 6 0.036364397390231423 30 1465 38 883 97 886
1782 1.3836887486906277 1.9438714509064232 15.696753365830036 118 95 21 0.8915818686756245 65 162 30 142
